# .PCD v0.7 - Point Cloud Data file format
VERSION 0.7
FIELDS x y z
SIZE 4 4 4
TYPE F F F
COUNT 1 1 1
WIDTH 2340
HEIGHT 1
VIEWPOINT 0 0 0 1 0 0 0
POINTS 2340
DATA ascii
16.299999 -27.9 18.5
16.299999 -27.9 18.700001
16.5 -27.9 18.5
16.5 -27.700001 18.5
16.700001 -27.700001 18.5
16.5 -27.9 18.700001
16.5 -27.700001 18.700001
16.700001 -27.700001 18.700001
16.299999 -27.9 18.9
16.5 -27.9 18.9
16.5 -27.700001 18.9
16.700001 -27.700001 18.9
16.5 -27.9 19.1
16.5 -27.700001 19.1
16.700001 -27.700001 19.1
16.9 -27.700001 18.9
16.9 -27.700001 19.1
17.700001 -27.9 17.9
17.700001 -27.9 18.1
17.9 -27.9 18.1
17.700001 -27.9 18.299999
17.9 -27.9 18.299999
17.9 -27.700001 18.299999
18.1 -27.9 18.1
18.1 -27.9 18.299999
18.299999 -27.9 18.299999
18.1 -27.700001 18.299999
17.9 -27.9 18.5
18.1 -27.9 18.5
18.299999 -27.9 18.5
18.1 -27.700001 18.5
18.299999 -27.700001 18.5
18.1 -27.9 18.700001
18.299999 -27.9 18.700001
18.299999 -27.9 18.9
18.5 -27.9 18.5
18.700001 -27.9 18.5
18.5 -27.700001 18.5
18.5 -27.9 18.700001
18.700001 -27.9 18.700001
18.5 -27.700001 18.700001
18.700001 -27.700001 18.700001
18.9 -27.9 18.5
18.9 -27.9 18.700001
19.1 -27.9 18.700001
18.9 -27.700001 18.700001
18.700001 -27.9 18.9
18.9 -27.9 18.9
19.1 -27.9 18.9
18.9 -27.700001 18.9
19.1 -27.700001 18.9
18.9 -27.9 19.1
19.1 -27.9 19.1
19.5 -28.299999 12.9
19.299999 -28.1 12.9
19.5 -28.1 12.9
19.5 -28.299999 13.1
19.299999 -28.1 13.1
19.5 -28.1 13.1
19.9 -28.299999 12.9
19.700001 -28.1 12.9
19.9 -28.1 12.9
19.700001 -28.1 13.1
19.9 -28.1 13.1
19.299999 -28.299999 13.3
19.5 -28.299999 13.3
19.700001 -28.299999 13.3
19.9 -28.299999 13.3
19.9 -28.1 13.3
20.1 -28.299999 12.9
20.299999 -28.299999 12.9
20.1 -28.1 12.9
20.299999 -28.1 12.9
20.1 -28.299999 13.1
20.299999 -28.299999 13.1
20.1 -28.1 13.1
20.299999 -28.1 13.1
20.5 -28.299999 12.9
20.700001 -28.299999 12.9
20.5 -28.1 12.9
20.700001 -28.1 12.9
20.700001 -28.299999 13.1
20.5 -28.1 13.1
20.700001 -28.1 13.1
20.1 -28.299999 13.3
20.299999 -28.299999 13.3
20.299999 -28.1 13.3
20.5 -28.299999 13.3
20.700001 -28.299999 13.3
20.5 -28.1 13.3
20.9 -28.299999 12.9
21.1 -28.299999 12.9
20.9 -28.1 12.9
21.1 -28.1 12.9
20.9 -28.1 13.1
21.1 -28.1 13.1
21.299999 -28.299999 12.9
21.299999 -28.1 12.9
21.5 -28.1 12.9
21.5 -28.299999 13.1
21.299999 -28.1 13.1
21.5 -28.1 13.1
20.9 -28.299999 13.3
21.1 -28.299999 13.3
21.299999 -28.299999 13.3
21.5 -28.299999 13.3
21.299999 -28.1 13.3
21.700001 -28.299999 12.9
21.9 -28.299999 12.9
21.700001 -28.1 12.9
21.9 -28.1 12.9
21.700001 -28.299999 13.1
21.700001 -28.1 13.1
21.9 -28.1 13.1
22.299999 -28.299999 12.9
22.1 -28.1 12.9
22.299999 -28.1 12.9
22.1 -28.1 13.1
22.299999 -28.1 13.1
21.700001 -28.299999 13.3
21.9 -28.299999 13.3
21.700001 -28.1 13.3
21.9 -28.1 13.3
22.1 -28.299999 13.3
22.1 -28.1 13.3
19.5 -28.299999 14.7
19.299999 -28.1 14.7
19.5 -28.1 14.7
19.299999 -28.1 14.9
19.5 -28.1 14.9
19.299999 -28.1 15.1
19.5 -28.1 15.1
19.700001 -28.299999 14.9
19.9 -28.299999 14.9
19.700001 -28.1 14.9
19.9 -28.1 14.9
19.700001 -28.1 15.1
19.9 -28.1 15.1
20.1 -28.1 14.9
20.1 -28.1 15.1
19.700001 -27.9 15.1
19.5 -28.1 15.3
19.700001 -28.1 15.3
19.9 -28.1 15.3
19.700001 -28.1 15.5
19.9 -28.1 15.5
20.1 -28.1 15.3
20.299999 -28.1 15.3
20.1 -28.1 15.5
20.299999 -28.1 15.5
20.5 -28.1 15.3
20.700001 -28.1 15.3
20.5 -28.1 15.5
20.700001 -28.1 15.5
20.1 -28.1 15.7
20.299999 -28.1 15.7
20.5 -28.1 15.7
20.700001 -28.1 15.7
20.5 -28.1 15.9
20.700001 -28.1 15.9
20.1 -27.9 15.3
20.299999 -27.9 15.3
20.299999 -27.9 15.5
20.5 -27.9 15.5
20.700001 -27.9 15.5
20.5 -27.9 15.7
20.700001 -27.9 15.7
20.9 -28.1 15.5
21.1 -28.1 15.5
20.9 -28.1 15.7
21.1 -28.1 15.7
20.9 -28.1 15.9
21.299999 -28.1 15.7
21.5 -28.1 15.7
21.299999 -28.1 15.9
21.5 -28.1 15.9
21.700001 -28.1 15.9
20.9 -27.9 15.7
21.1 -27.9 15.7
20.9 -27.9 15.9
21.1 -27.9 15.9
22.5 -28.1 12.9
22.700001 -28.1 12.9
22.9 -28.1 12.9
22.9 -28.1 13.1
23.1 -28.1 13.1
22.5 -28.1 13.3
22.9 -28.299999 13.3
23.700001 -28.5 12.9
23.9 -28.5 12.9
23.9 -28.5 13.1
23.299999 -28.299999 12.9
23.299999 -28.1 12.9
23.5 -28.1 12.9
23.299999 -28.1 13.1
23.5 -28.1 13.1
23.9 -28.299999 12.9
23.700001 -28.1 12.9
23.9 -28.1 12.9
23.9 -28.299999 13.1
23.700001 -28.1 13.1
23.9 -28.1 13.1
23.9 -28.5 13.3
23.5 -28.1 13.3
23.5 -28.1 13.5
23.9 -28.299999 13.3
23.700001 -28.1 13.3
23.9 -28.1 13.3
23.9 -28.299999 13.5
23.700001 -28.1 13.5
23.5 -27.9 12.9
23.5 -27.700001 12.9
23.5 -27.9 13.1
23.5 -27.700001 13.1
23.700001 -27.9 12.9
23.9 -27.9 12.9
23.700001 -27.700001 12.9
23.700001 -27.9 13.1
23.9 -27.9 13.1
23.5 -27.5 12.9
23.5 -27.299999 12.9
23.5 -27.5 13.1
23.5 -27.299999 13.1
23.9 -27.5 12.9
23.700001 -27.299999 12.9
23.9 -27.299999 12.9
23.700001 -27.5 13.1
23.9 -27.5 13.1
23.700001 -27.299999 13.1
23.9 -27.299999 13.1
23.5 -27.9 13.3
23.5 -27.700001 13.3
23.5 -27.9 13.5
23.5 -27.700001 13.5
23.700001 -27.9 13.3
23.700001 -27.700001 13.3
23.700001 -27.9 13.5
23.700001 -27.700001 13.5
23.5 -27.5 13.5
23.5 -27.299999 13.5
23.700001 -27.5 13.3
23.700001 -27.299999 13.3
23.700001 -27.5 13.5
23.700001 -27.299999 13.5
23.700001 -28.5 13.7
23.700001 -28.299999 13.7
23.9 -28.299999 13.7
23.700001 -28.1 13.7
23.700001 -28.299999 13.9
23.700001 -28.1 13.9
23.9 -28.1 13.9
23.5 -28.1 14.1
23.700001 -28.1 14.1
23.700001 -28.1 14.3
23.5 -27.700001 13.7
23.700001 -27.700001 13.7
23.5 -27.5 13.7
23.5 -27.299999 13.7
23.299999 -27.299999 13.9
23.5 -27.299999 13.9
23.700001 -27.5 13.7
23.700001 -27.299999 13.7
23.700001 -27.299999 13.9
23.5 -27.9 14.3
23.5 -27.1 12.9
23.5 -26.9 12.9
23.5 -27.1 13.1
23.5 -26.9 13.1
23.9 -27.1 12.9
23.9 -26.9 12.9
23.700001 -27.1 13.1
23.9 -27.1 13.1
23.9 -26.9 13.1
23.5 -26.700001 12.9
23.5 -26.5 12.9
23.5 -26.700001 13.1
23.5 -26.5 13.1
23.700001 -26.700001 12.9
23.9 -26.700001 12.9
23.700001 -26.5 12.9
23.9 -26.5 12.9
23.700001 -26.700001 13.1
23.9 -26.700001 13.1
23.9 -26.5 13.1
23.5 -27.1 13.3
23.5 -26.9 13.3
23.700001 -27.1 13.3
23.700001 -26.9 13.3
23.700001 -27.1 13.5
23.5 -26.700001 13.3
23.5 -26.5 13.3
23.700001 -26.700001 13.3
23.700001 -26.5 13.3
23.5 -26.299999 12.9
23.5 -26.1 12.9
23.5 -26.299999 13.1
23.5 -26.1 13.1
23.700001 -26.299999 12.9
23.9 -26.299999 12.9
23.700001 -26.1 12.9
23.9 -26.1 12.9
23.9 -26.299999 13.1
23.700001 -26.1 13.1
23.9 -26.1 13.1
23.5 -25.9 12.9
23.5 -25.700001 12.9
23.5 -25.9 13.1
23.5 -25.700001 13.1
23.9 -25.9 12.9
23.9 -25.700001 12.9
23.9 -25.9 13.1
23.9 -25.700001 13.1
23.5 -26.299999 13.3
23.5 -26.1 13.3
23.700001 -26.299999 13.3
23.700001 -26.1 13.3
23.5 -25.9 13.3
23.5 -25.700001 13.3
23.700001 -25.9 13.3
23.700001 -25.700001 13.3
23.5 -27.1 13.7
23.5 -26.9 13.7
23.5 -27.1 13.9
23.5 -26.9 13.9
23.700001 -27.1 13.7
23.700001 -26.9 13.7
23.700001 -27.1 13.9
23.700001 -26.9 13.9
23.5 -26.700001 13.9
23.5 -26.5 13.9
23.700001 -26.700001 13.7
23.700001 -26.700001 13.9
23.700001 -26.5 13.9
23.5 -27.1 14.1
23.299999 -26.9 14.1
23.5 -26.9 14.1
23.700001 -26.9 14.1
23.5 -26.700001 14.1
23.5 -26.5 14.1
23.5 -26.700001 14.3
23.299999 -26.5 14.3
23.5 -26.5 14.3
23.700001 -26.700001 14.1
23.700001 -26.5 14.1
23.700001 -26.5 14.3
23.5 -26.299999 14.1
23.5 -26.1 14.1
23.299999 -26.299999 14.3
23.5 -26.299999 14.3
23.299999 -26.1 14.3
23.5 -26.1 14.3
23.700001 -26.299999 14.1
23.700001 -26.1 14.1
23.700001 -26.299999 14.3
23.700001 -26.1 14.3
23.5 -25.9 14.3
23.5 -25.700001 14.3
23.700001 -25.9 14.3
23.700001 -28.1 14.5
23.700001 -28.299999 14.7
23.700001 -28.1 14.7
23.299999 -28.1 14.9
23.299999 -28.299999 15.1
23.299999 -28.1 15.1
23.700001 -28.299999 14.9
23.700001 -28.1 14.9
23.700001 -28.299999 15.1
23.700001 -28.1 15.1
23.5 -27.9 14.5
23.5 -27.9 14.7
23.700001 -27.9 14.5
23.700001 -27.9 14.7
23.299999 -27.9 14.9
23.5 -27.9 14.9
23.299999 -27.9 15.1
23.5 -27.9 15.1
23.700001 -27.9 14.9
23.700001 -27.9 15.1
23.700001 -28.1 15.3
23.700001 -28.1 15.5
23.299999 -28.1 15.9
23.700001 -28.1 15.7
23.700001 -28.1 15.9
23.299999 -27.9 15.3
23.5 -27.9 15.3
23.299999 -27.9 15.5
23.5 -27.9 15.5
23.700001 -27.9 15.3
23.299999 -27.9 15.7
23.5 -27.9 15.7
23.299999 -27.9 15.9
23.5 -27.9 15.9
23.700001 -27.9 15.7
23.700001 -27.9 15.9
23.5 -26.5 14.5
23.299999 -26.299999 14.5
23.5 -26.299999 14.5
23.299999 -26.1 14.5
23.5 -26.1 14.5
23.5 -26.1 14.7
23.700001 -26.299999 14.5
23.700001 -26.1 14.5
23.299999 -25.9 14.5
23.5 -25.9 14.5
23.5 -25.700001 14.5
23.299999 -25.9 14.7
23.299999 -25.700001 14.7
23.700001 -25.9 14.5
23.700001 -25.700001 14.5
23.700001 -25.700001 14.7
19.299999 -28.1 16.9
19.5 -28.1 16.9
19.5 -28.1 17.1
19.700001 -28.1 16.9
19.9 -28.1 16.9
20.1 -28.1 16.9
20.299999 -28.1 16.9
20.299999 -28.1 17.1
20.700001 -28.1 16.9
20.5 -28.1 17.1
20.5 -28.1 17.5
19.299999 -27.9 16.9
19.5 -27.9 16.9
19.299999 -27.9 17.1
19.5 -27.9 17.1
19.700001 -27.9 16.9
19.9 -27.9 16.9
19.700001 -27.9 17.1
19.9 -27.9 17.1
19.299999 -27.9 17.299999
19.5 -27.9 17.299999
19.299999 -27.9 17.5
19.5 -27.9 17.5
19.700001 -27.9 17.299999
19.9 -27.9 17.299999
19.700001 -27.9 17.5
19.9 -27.9 17.5
19.700001 -27.700001 17.5
19.9 -27.700001 17.5
20.1 -27.9 16.9
20.299999 -27.9 16.9
20.1 -27.9 17.1
20.299999 -27.9 17.1
20.5 -27.9 16.9
20.700001 -27.9 16.9
20.5 -27.9 17.1
20.700001 -27.9 17.1
20.1 -27.9 17.299999
20.299999 -27.9 17.299999
20.1 -27.9 17.5
20.299999 -27.9 17.5
20.5 -27.9 17.299999
20.700001 -27.9 17.299999
20.5 -27.9 17.5
21.1 -28.1 16.1
21.299999 -28.1 16.1
21.299999 -28.1 16.299999
21.5 -28.1 16.299999
21.700001 -28.1 16.1
21.9 -28.1 16.1
22.1 -28.1 16.1
22.1 -28.1 16.299999
22.299999 -28.1 16.299999
22.1 -28.1 16.5
21.299999 -27.9 16.1
21.5 -27.9 16.1
21.700001 -27.9 16.1
21.9 -27.9 16.299999
22.1 -27.9 16.5
22.299999 -27.9 16.5
22.299999 -27.9 16.700001
20.9 -27.9 16.9
21.1 -27.9 16.9
20.9 -27.9 17.1
21.1 -27.9 17.1
21.299999 -27.9 17.1
21.5 -27.9 17.1
20.9 -27.9 17.299999
20.9 -27.9 17.5
21.5 -27.9 17.299999
21.5 -27.9 17.5
21.700001 -27.9 17.1
21.9 -27.9 17.1
22.1 -27.9 16.9
22.299999 -27.9 16.9
22.299999 -27.9 17.1
21.700001 -27.9 17.299999
21.9 -27.9 17.299999
21.700001 -27.9 17.5
21.9 -27.9 17.5
22.1 -27.9 17.299999
20.1 -27.9 17.700001
19.299999 -27.9 18.9
19.5 -27.9 18.9
19.299999 -27.700001 18.9
19.5 -27.9 19.1
19.5 -27.700001 19.1
19.700001 -27.700001 19.1
22.5 -28.1 16.299999
22.9 -28.1 16.5
23.299999 -28.1 16.1
23.5 -28.1 16.1
23.5 -28.1 16.299999
23.700001 -28.1 16.1
23.5 -28.299999 16.5
23.5 -28.1 16.5
22.5 -27.9 16.5
22.700001 -27.9 16.5
22.5 -27.9 16.700001
22.700001 -27.9 16.700001
22.9 -27.9 16.700001
23.1 -27.9 16.700001
23.299999 -27.9 16.1
23.5 -27.9 16.1
23.299999 -27.9 16.299999
23.5 -27.9 16.299999
23.299999 -27.9 16.5
23.5 -27.9 16.5
23.299999 -27.9 16.700001
23.5 -27.9 16.700001
22.700001 -27.9 16.9
22.5 -27.9 17.1
22.700001 -27.9 17.1
22.9 -27.9 16.9
23.1 -27.9 16.9
22.9 -27.9 17.1
23.1 -27.9 17.1
22.5 -27.9 17.299999
22.700001 -27.9 17.299999
22.700001 -27.9 17.5
22.700001 -27.700001 17.5
23.1 -27.9 17.299999
22.9 -27.700001 17.299999
23.1 -27.700001 17.299999
22.9 -27.9 17.5
23.299999 -27.9 16.9
23.5 -27.9 16.9
23.299999 -27.700001 16.9
23.5 -27.9 17.1
23.5 -27.700001 17.1
23.299999 -27.5 16.9
23.299999 -27.5 17.1
23.5 -27.5 17.1
23.5 -27.299999 17.1
23.5 -27.9 17.299999
23.5 -27.9 17.5
23.1 -26.700001 17.1
23.1 -26.700001 17.299999
23.299999 -27.1 16.9
23.5 -27.1 17.1
23.5 -26.9 17.1
23.299999 -26.700001 16.9
23.5 -26.700001 16.9
23.299999 -26.5 16.9
23.5 -26.5 16.9
23.5 -26.700001 17.1
23.1 -25.700001 17.1
23.1 -25.700001 17.299999
23.1 -25.700001 17.5
23.299999 -26.299999 16.9
23.299999 -26.1 16.9
23.299999 -25.9 16.9
23.299999 -25.700001 16.9
23.299999 -25.9 17.1
23.5 -25.9 17.1
23.299999 -25.700001 17.1
23.5 -25.9 17.299999
23.5 -25.700001 17.299999
23.5 -25.9 17.5
22.9 -27.9 18.1
22.9 -27.9 18.299999
23.5 -27.9 17.700001
23.5 -27.9 17.9
23.299999 -27.700001 17.9
23.5 -27.299999 17.700001
23.5 -27.5 17.9
22.9 -28.1 18.700001
22.9 -27.9 18.5
23.1 -27.700001 18.9
23.1 -27.700001 19.1
23.5 -27.9 18.5
23.299999 -27.700001 18.5
23.299999 -27.700001 18.700001
23.5 -27.700001 18.700001
23.299999 -27.700001 18.9
23.5 -27.700001 18.9
23.299999 -27.9 19.1
23.299999 -27.700001 19.1
23.1 -26.9 17.9
23.1 -26.9 18.1
23.1 -26.9 18.299999
23.1 -26.5 18.1
23.1 -26.700001 18.299999
23.299999 -27.1 17.700001
23.299999 -27.1 17.9
23.299999 -26.9 17.9
23.299999 -26.700001 17.9
23.299999 -27.1 18.1
23.299999 -26.700001 18.1
23.299999 -26.5 18.1
23.5 -26.700001 18.299999
23.299999 -26.5 18.299999
23.5 -26.5 18.299999
23.1 -26.299999 18.299999
23.299999 -26.299999 18.1
23.299999 -26.299999 18.299999
23.299999 -26.1 18.299999
23.299999 -26.5 18.5
23.1 -26.1 18.5
23.1 -25.700001 18.5
23.1 -25.9 18.700001
23.1 -25.700001 18.700001
23.299999 -26.299999 18.5
23.299999 -25.9 18.5
23.299999 -25.9 18.700001
23.299999 -25.700001 18.700001
23.299999 -25.9 18.9
23.299999 -25.700001 18.9
14.1 -27.9 20.700001
14.3 -27.9 20.700001
15.1 -28.1 20.299999
14.5 -28.1 20.5
14.7 -28.1 20.5
14.9 -28.1 20.5
15.9 -28.1 20.299999
15.3 -28.1 20.5
14.5 -27.9 20.5
14.7 -27.9 20.5
14.5 -27.9 20.700001
14.7 -27.9 20.700001
14.9 -27.9 20.5
15.5 -27.9 20.5
15.3 -27.9 20.700001
14.1 -28.1 20.9
14.1 -28.1 21.1
14.1 -28.1 21.5
14.3 -28.1 21.5
14.3 -27.9 20.9
14.3 -27.9 21.5
13.9 -28.1 21.9
14.1 -28.1 21.700001
14.3 -28.1 21.700001
14.1 -28.1 21.9
14.3 -28.1 21.9
14.3 -27.9 21.700001
14.3 -27.9 21.9
14.5 -28.1 21.299999
14.5 -27.9 21.700001
16.299999 -27.9 19.299999
16.299999 -27.9 19.5
16.5 -27.9 19.299999
16.5 -27.700001 19.299999
16.700001 -27.700001 19.299999
16.5 -27.9 19.5
16.5 -27.700001 19.5
16.700001 -27.700001 19.5
16.700001 -27.5 19.5
16.5 -27.9 19.700001
16.5 -27.700001 19.700001
16.700001 -27.700001 19.700001
16.5 -27.9 19.9
16.5 -27.700001 19.9
16.700001 -27.700001 19.9
16.700001 -27.5 19.700001
16.700001 -27.5 19.9
16.9 -27.700001 19.299999
16.9 -27.700001 19.5
16.9 -27.5 19.5
16.9 -27.700001 19.700001
16.9 -27.5 19.700001
16.1 -28.1 20.299999
16.5 -28.1 20.299999
16.700001 -28.1 20.299999
16.299999 -28.1 20.5
16.700001 -28.1 20.5
17.1 -28.1 20.299999
17.1 -28.1 20.5
16.700001 -27.9 20.1
16.700001 -27.700001 20.1
16.5 -27.700001 20.299999
16.700001 -27.700001 20.299999
16.700001 -27.5 20.299999
16.299999 -27.9 20.5
16.700001 -27.9 20.5
16.700001 -27.700001 20.5
16.9 -27.700001 20.299999
16.9 -27.5 20.299999
16.9 -27.700001 20.5
16.9 -27.700001 20.700001
16.9 -27.5 20.5
16.9 -27.5 20.700001
19.1 -28.1 20.5
17.700001 -27.9 20.700001
18.1 -27.9 20.700001
18.299999 -27.9 20.700001
18.5 -27.9 20.5
18.700001 -27.9 20.5
19.1 -27.9 20.5
18.9 -27.9 20.700001
16.700001 -26.9 20.700001
16.9 -26.9 20.700001
16.9 -26.700001 20.700001
16.700001 -26.1 20.1
16.700001 -26.299999 20.299999
16.700001 -25.700001 20.1
16.700001 -26.299999 20.5
16.9 -26.299999 20.299999
16.9 -26.1 20.299999
16.9 -25.700001 20.1
16.9 -25.9 20.299999
16.9 -25.700001 20.299999
16.9 -26.299999 20.5
16.9 -26.299999 20.700001
16.700001 -27.5 21.299999
16.700001 -27.299999 21.5
16.9 -27.700001 20.9
16.9 -27.700001 21.1
17.1 -27.700001 21.1
17.1 -27.700001 21.299999
17.299999 -27.700001 21.299999
17.5 -27.700001 21.299999
17.1 -27.5 21.299999
17.299999 -27.5 21.299999
17.5 -27.5 21.299999
17.5 -27.5 21.5
16.700001 -27.5 21.700001
16.700001 -27.5 22.299999
17.5 -27.700001 21.700001
17.299999 -27.700001 21.9
17.5 -27.700001 21.9
16.9 -27.5 21.9
17.1 -27.5 21.9
17.5 -27.5 21.700001
17.299999 -27.5 21.9
16.9 -27.5 22.1
16.9 -27.299999 22.299999
17.5 -27.5 22.1
17.700001 -27.5 21.299999
17.700001 -27.5 21.5
17.700001 -27.5 22.1
17.700001 -27.5 22.299999
17.9 -27.5 22.299999
18.1 -27.5 22.299999
16.700001 -27.1 20.9
16.9 -26.9 20.9
16.9 -27.1 21.1
16.9 -26.9 21.1
16.9 -27.1 21.299999
16.9 -26.9 21.299999
16.9 -27.1 21.5
17.1 -27.1 21.5
16.9 -26.9 21.5
16.700001 -26.1 21.299999
16.700001 -26.299999 21.5
16.9 -26.299999 21.299999
17.1 -26.299999 21.5
16.9 -25.700001 21.299999
17.1 -25.700001 21.299999
17.1 -25.700001 21.5
17.1 -27.1 21.700001
17.1 -26.9 21.700001
17.1 -26.299999 21.700001
17.1 -25.700001 21.700001
14.3 -28.1 22.700001
14.3 -27.9 22.700001
14.1 -27.9 22.9
14.1 -28.1 23.5
14.3 -27.9 23.5
14.1 -27.9 23.700001
14.3 -27.9 23.700001
14.3 -27.9 23.9
14.5 -28.1 23.700001
14.3 -28.1 24.5
14.3 -27.9 24.1
14.3 -27.9 24.299999
14.3 -27.9 24.5
14.3 -28.1 24.9
14.3 -28.1 25.1
14.3 -28.1 25.299999
14.3 -28.1 25.5
16.700001 -27.5 22.5
16.9 -27.299999 22.5
17.1 -27.299999 22.700001
17.1 -27.299999 22.9
17.1 -27.5 23.1
17.1 -27.299999 23.1
17.1 -27.5 23.299999
16.9 -27.299999 23.299999
17.9 -27.5 22.5
18.299999 -27.5 23.1
18.9 -27.5 22.700001
18.9 -27.5 22.9
19.1 -27.5 22.9
19.1 -27.5 23.1
17.1 -27.5 24.299999
16.9 -27.299999 24.299999
17.1 -27.299999 24.299999
17.299999 -27.299999 24.1
17.1 -27.5 24.5
16.9 -27.299999 24.5
17.299999 -27.5 24.700001
17.299999 -27.5 24.9
17.1 -27.299999 25.5
17.299999 -27.299999 25.299999
17.700001 -27.299999 25.5
18.1 -27.5 25.5
18.299999 -27.299999 25.5
18.5 -27.299999 25.5
18.700001 -27.299999 25.5
18.9 -27.299999 25.5
19.1 -27.299999 25.5
17.1 -26.5 24.700001
17.1 -25.9 24.299999
17.1 -27.1 25.1
17.1 -26.9 25.1
17.299999 -26.9 25.1
17.1 -26.5 24.9
17.1 -26.5 25.1
17.1 -27.1 25.299999
17.299999 -27.1 25.299999
17.299999 -27.1 25.5
17.299999 -26.700001 25.299999
17.299999 -26.700001 25.5
17.1 -26.1 25.5
17.299999 -25.700001 25.5
19.299999 -27.700001 19.299999
19.9 -27.700001 19.299999
19.700001 -27.9 19.5
19.700001 -27.700001 19.5
19.9 -27.700001 19.5
20.1 -27.700001 19.299999
20.1 -27.700001 19.5
20.299999 -27.700001 19.700001
20.299999 -27.700001 19.9
19.5 -28.1 20.299999
20.700001 -28.1 20.5
20.299999 -27.9 20.700001
20.5 -27.9 20.5
20.9 -27.700001 19.9
21.1 -27.700001 19.9
21.299999 -28.1 20.5
21.9 -28.299999 20.5
21.9 -28.1 20.5
22.1 -28.1 20.5
20.9 -27.700001 20.1
21.5 -27.700001 20.299999
21.5 -27.9 20.5
21.700001 -27.700001 20.299999
21.700001 -27.9 20.5
21.9 -27.9 20.5
21.700001 -27.700001 20.5
21.9 -27.700001 20.5
22.1 -27.9 20.5
22.1 -27.700001 20.5
22.299999 -27.9 20.700001
22.1 -27.700001 20.700001
22.299999 -27.700001 20.700001
21.9 -27.5 20.5
21.700001 -27.5 20.700001
20.5 -27.700001 21.1
20.700001 -27.700001 21.1
20.700001 -27.700001 21.299999
20.5 -27.5 21.299999
20.700001 -27.5 21.299999
20.5 -27.5 21.5
21.299999 -27.700001 21.299999
20.9 -27.5 21.299999
21.1 -27.5 21.5
21.299999 -27.5 21.299999
21.700001 -27.700001 21.1
22.299999 -27.700001 20.9
22.299999 -27.5 20.9
22.299999 -27.5 21.1
21.700001 -27.700001 21.299999
21.700001 -27.5 21.299999
21.9 -27.5 21.299999
21.700001 -27.5 21.5
21.9 -27.5 21.5
22.1 -27.5 21.299999
22.299999 -27.5 21.299999
22.299999 -27.5 21.5
21.299999 -27.5 21.700001
21.700001 -27.5 21.700001
23.1 -27.700001 19.299999
22.9 -27.9 19.5
22.9 -27.700001 19.5
23.1 -27.700001 19.5
23.1 -27.700001 19.700001
22.9 -27.700001 19.9
23.1 -27.700001 19.9
23.1 -27.5 19.700001
23.1 -27.5 19.9
23.299999 -27.9 19.299999
23.299999 -27.9 19.5
23.299999 -27.700001 19.5
23.299999 -27.9 19.700001
23.299999 -27.700001 19.700001
23.299999 -27.9 19.9
23.299999 -27.700001 19.9
22.700001 -28.1 20.5
23.1 -28.299999 20.5
23.9 -28.1 20.299999
23.299999 -28.1 20.5
23.5 -28.1 20.5
23.700001 -28.299999 20.5
23.9 -28.1 20.5
23.1 -27.5 20.1
23.1 -27.5 20.299999
22.5 -27.9 20.5
22.700001 -27.9 20.5
22.5 -27.9 20.700001
23.1 -27.9 20.5
23.1 -27.9 20.700001
23.1 -27.5 20.5
23.1 -27.5 20.700001
23.299999 -27.9 20.1
23.299999 -27.700001 20.1
23.299999 -27.700001 20.299999
23.299999 -27.9 20.5
23.5 -27.9 20.5
23.299999 -27.700001 20.5
23.299999 -27.700001 20.700001
23.9 -27.9 20.5
23.9 -27.9 20.700001
24.299999 -28.1 20.299999
24.1 -28.299999 20.5
24.299999 -28.1 20.5
24.5 -28.299999 20.5
24.5 -28.1 20.5
24.700001 -28.1 20.5
24.9 -28.299999 20.5
25.1 -28.299999 20.5
24.9 -28.1 20.5
25.1 -28.1 20.5
25.299999 -28.1 20.5
25.5 -28.1 20.5
24.5 -27.9 20.5
24.5 -27.9 20.700001
24.9 -27.9 20.5
25.299999 -27.9 20.5
25.5 -27.9 20.5
25.299999 -27.9 20.700001
22.5 -27.700001 20.9
22.5 -27.700001 21.1
22.700001 -27.700001 21.1
22.9 -27.700001 21.1
23.1 -27.700001 21.1
22.700001 -27.5 21.1
22.9 -27.5 20.9
23.1 -27.5 20.9
22.9 -27.5 21.1
23.1 -27.5 21.1
23.1 -27.700001 21.5
22.5 -27.5 21.299999
22.700001 -27.5 21.299999
22.5 -27.5 21.5
22.9 -27.5 21.299999
22.9 -27.299999 21.299999
23.1 -27.299999 21.299999
23.1 -27.5 21.5
23.1 -27.299999 21.5
23.299999 -27.700001 20.9
23.299999 -27.700001 21.1
23.299999 -27.5 21.1
23.299999 -27.700001 21.299999
23.299999 -27.5 21.299999
23.1 -27.700001 21.9
23.1 -27.5 21.700001
23.1 -27.299999 21.700001
23.1 -27.299999 21.9
23.1 -27.700001 22.1
23.1 -27.700001 22.299999
23.1 -27.1 21.1
22.9 -26.5 21.1
23.1 -27.1 21.299999
23.1 -26.9 21.299999
23.1 -27.1 21.5
22.9 -26.700001 21.299999
23.1 -26.700001 21.299999
23.1 -26.5 21.299999
23.1 -26.700001 21.5
23.1 -26.5 21.5
23.1 -26.299999 21.299999
22.9 -26.1 21.299999
23.1 -26.1 21.299999
23.1 -26.299999 21.5
23.1 -25.9 21.299999
22.9 -25.700001 21.299999
23.1 -25.700001 21.299999
22.9 -25.700001 21.5
23.1 -25.700001 21.5
23.1 -27.1 21.700001
23.1 -27.1 21.9
23.1 -26.5 21.700001
23.1 -27.1 22.1
22.9 -26.700001 22.1
23.1 -26.700001 22.1
22.9 -26.700001 22.299999
23.1 -26.700001 22.299999
22.9 -26.5 22.299999
23.1 -26.299999 21.700001
22.9 -26.299999 22.299999
19.299999 -27.5 23.1
19.299999 -27.5 23.299999
19.5 -27.5 23.299999
19.5 -27.5 23.5
19.700001 -27.5 23.5
19.9 -27.5 23.5
20.1 -27.5 23.700001
20.299999 -27.5 23.700001
20.1 -27.5 23.9
20.1 -27.299999 23.9
20.5 -27.5 23.9
20.700001 -27.5 23.9
20.700001 -27.5 24.1
20.700001 -27.299999 24.299999
19.299999 -27.299999 25.5
19.700001 -27.299999 25.5
19.9 -27.299999 25.5
20.1 -27.299999 25.5
20.299999 -27.299999 25.5
20.5 -27.299999 25.5
20.9 -27.5 24.1
20.9 -27.5 24.299999
20.9 -27.299999 24.299999
21.1 -27.299999 24.299999
21.1 -27.299999 24.5
21.5 -27.5 24.5
21.299999 -27.299999 24.5
21.700001 -27.5 24.700001
21.9 -27.299999 24.700001
21.9 -27.299999 24.9
22.1 -27.299999 24.9
22.1 -27.299999 25.1
22.299999 -27.299999 25.1
22.299999 -27.299999 25.299999
22.299999 -27.299999 25.5
23.1 -27.700001 22.5
22.700001 -27.5 22.5
22.700001 -27.299999 22.700001
22.9 -27.299999 22.5
22.700001 -27.299999 23.1
22.9 -27.299999 23.1
22.9 -27.299999 23.299999
22.9 -27.299999 23.5
23.1 -27.5 23.700001
22.9 -27.299999 23.700001
22.9 -27.299999 23.9
25.299999 -28.1 23.1
25.5 -27.9 22.5
25.5 -27.9 22.700001
25.5 -27.9 23.9
23.1 -26.700001 22.5
22.9 -26.299999 22.5
23.1 -26.299999 22.5
23.1 -26.299999 22.700001
23.1 -26.1 22.700001
22.9 -25.700001 22.700001
22.700001 -25.700001 22.9
22.9 -25.700001 22.9
23.1 -25.700001 22.9
23.1 -25.700001 23.1
22.700001 -27.299999 24.299999
22.9 -27.299999 24.1
22.9 -27.299999 24.299999
22.700001 -27.299999 24.700001
22.9 -27.299999 24.700001
22.700001 -27.299999 24.9
22.9 -27.5 24.9
22.9 -27.299999 25.1
22.700001 -27.299999 25.299999
22.9 -27.5 25.299999
22.9 -27.299999 25.299999
22.9 -27.5 25.5
25.5 -28.1 24.700001
25.5 -28.1 24.9
25.5 -28.1 25.1
22.5 -26.9 25.5
22.700001 -26.9 25.5
22.700001 -26.700001 25.5
22.700001 -26.5 25.5
22.700001 -26.299999 25.5
22.700001 -25.9 25.5
22.700001 -25.700001 25.5
25.700001 -34.900002 0.1
25.9 -34.900002 0.1
26.1 -34.900002 0.1
26.299999 -34.900002 0.1
25.9 -34.700001 0.1
26.5 -34.900002 0.1
27.1 -34.900002 0.1
26.700001 -34.700001 0.1
26.9 -34.700001 0.1
27.1 -34.700001 0.1
25.700001 -34.099998 0.1
26.1 -34.299999 0.1
26.299999 -33.900002 0.1
26.700001 -34.299999 0.1
26.700001 -34.099998 0.1
26.9 -34.299999 0.1
27.1 -34.299999 0.1
26.9 -34.099998 0.1
26.5 -33.900002 0.1
26.700001 -33.900002 0.1
26.5 -33.700001 0.1
26.700001 -33.700001 0.1
26.9 -33.700001 0.1
27.1 -33.700001 0.1
27.299999 -34.900002 0.1
27.9 -34.900002 0.1
27.5 -34.700001 0.1
27.299999 -34.5 0.1
27.9 -34.700001 0.1
27.700001 -34.5 0.1
27.9 -34.5 0.1
28.1 -34.900002 0.1
28.700001 -34.900002 0.1
28.299999 -34.700001 0.1
28.1 -34.5 0.1
28.299999 -34.5 0.1
28.5 -34.700001 0.1
28.5 -34.5 0.1
27.700001 -34.099998 0.1
27.299999 -33.700001 0.1
27.5 -33.700001 0.1
27.9 -33.900002 0.1
27.700001 -33.700001 0.1
28.1 -34.099998 0.1
28.299999 -34.099998 0.1
28.5 -34.099998 0.1
28.1 -33.700001 0.1
28.5 -33.900002 0.1
28.700001 -33.700001 0.1
25.9 -33.5 0.1
25.9 -33.299999 0.1
26.1 -33.5 0.1
26.299999 -33.5 0.1
26.1 -33.299999 0.1
25.9 -33.099998 0.1
25.700001 -32.900002 0.1
25.9 -32.900002 0.1
26.1 -33.099998 0.1
26.1 -32.900002 0.1
26.5 -33.5 0.1
26.700001 -33.5 0.1
26.5 -33.299999 0.1
26.9 -33.5 0.1
26.9 -33.299999 0.1
26.5 -33.099998 0.1
26.700001 -33.099998 0.1
26.5 -32.900002 0.1
26.700001 -32.900002 0.1
27.1 -33.099998 0.1
27.1 -32.900002 0.1
25.700001 -32.700001 0.1
25.9 -32.700001 0.1
25.700001 -32.5 0.1
26.299999 -32.700001 0.1
26.299999 -32.5 0.1
25.700001 -32.299999 0.1
25.9 -32.299999 0.1
25.700001 -32.099998 0.1
25.9 -32.099998 0.1
26.1 -32.099998 0.1
26.299999 -32.099998 0.1
26.700001 -32.700001 0.1
26.5 -32.5 0.1
26.700001 -32.5 0.1
26.9 -32.5 0.1
26.5 -32.299999 0.1
26.700001 -32.299999 0.1
26.5 -32.099998 0.1
26.9 -32.299999 0.1
27.1 -32.299999 0.1
27.1 -32.099998 0.1
27.299999 -33.299999 0.1
27.5 -33.299999 0.1
27.9 -33.5 0.1
27.9 -33.299999 0.1
27.299999 -33.099998 0.1
27.5 -33.099998 0.1
27.5 -32.900002 0.1
27.700001 -33.099998 0.1
27.9 -33.099998 0.1
27.9 -32.900002 0.1
28.1 -33.299999 0.1
28.299999 -33.299999 0.1
28.700001 -33.5 0.1
28.5 -33.299999 0.1
28.700001 -33.299999 0.1
28.700001 -33.099998 0.1
28.5 -32.900002 0.1
27.299999 -32.700001 0.1
27.5 -32.700001 0.1
27.299999 -32.5 0.1
27.5 -32.5 0.1
27.700001 -32.700001 0.1
27.9 -32.700001 0.1
27.700001 -32.5 0.1
27.299999 -32.299999 0.1
27.5 -32.299999 0.1
27.299999 -32.099998 0.1
27.700001 -32.299999 0.1
27.700001 -32.099998 0.1
27.9 -32.099998 0.1
28.299999 -32.700001 0.1
28.5 -32.700001 0.1
28.700001 -32.700001 0.1
28.1 -32.099998 0.1
28.299999 -32.099998 0.1
28.5 -32.299999 0.1
28.5 -32.099998 0.1
28.9 -34.900002 0.1
29.1 -34.900002 0.1
29.299999 -34.900002 0.1
29.5 -34.900002 0.1
28.9 -34.700001 0.1
29.700001 -34.900002 0.1
29.9 -34.900002 0.1
29.700001 -34.700001 0.1
29.9 -34.700001 0.1
30.1 -34.700001 0.1
30.299999 -34.5 0.1
28.9 -34.099998 0.1
29.1 -34.099998 0.1
29.5 -34.299999 0.1
29.299999 -34.099998 0.1
29.5 -34.099998 0.1
28.9 -33.900002 0.1
29.700001 -34.299999 0.1
29.9 -34.299999 0.1
29.700001 -34.099998 0.1
30.1 -34.299999 0.1
30.299999 -34.299999 0.1
30.299999 -34.099998 0.1
29.700001 -33.700001 0.1
29.9 -33.700001 0.1
30.299999 -33.700001 0.1
30.700001 -34.900002 0.1
30.9 -34.900002 0.1
30.5 -34.5 0.1
30.9 -34.700001 0.1
30.9 -34.5 0.1
31.5 -34.5 0.1
31.700001 -34.700001 0.1
31.9 -34.700001 0.1
31.700001 -34.5 0.1
30.5 -34.299999 0.1
31.1 -34.299999 0.1
30.9 -33.900002 0.1
31.1 -33.900002 0.1
30.9 -33.700001 0.1
31.1 -33.700001 0.1
31.299999 -34.099998 0.1
31.5 -34.099998 0.1
31.299999 -33.900002 0.1
31.299999 -33.700001 0.1
31.700001 -33.900002 0.1
31.9 -33.900002 0.1
31.9 -33.700001 0.1
28.9 -33.5 0.1
29.1 -33.5 0.1
28.9 -33.299999 0.1
29.299999 -33.5 0.1
29.299999 -33.299999 0.1
28.9 -33.099998 0.1
29.5 -33.099998 0.1
29.299999 -32.900002 0.1
29.5 -32.900002 0.1
29.700001 -33.5 0.1
29.9 -33.099998 0.1
30.1 -33.099998 0.1
30.299999 -33.099998 0.1
28.9 -32.700001 0.1
29.1 -32.5 0.1
29.5 -32.700001 0.1
29.299999 -32.5 0.1
29.5 -32.5 0.1
28.9 -32.299999 0.1
29.1 -32.299999 0.1
28.9 -32.099998 0.1
29.5 -32.299999 0.1
29.299999 -32.099998 0.1
29.5 -32.099998 0.1
29.9 -32.700001 0.1
29.700001 -32.5 0.1
29.9 -32.5 0.1
30.1 -32.700001 0.1
30.299999 -32.700001 0.1
30.1 -32.5 0.1
30.299999 -32.5 0.1
29.700001 -32.299999 0.1
29.9 -32.299999 0.1
30.299999 -32.099998 0.1
30.5 -33.299999 0.1
30.9 -33.299999 0.1
31.1 -33.299999 0.1
30.700001 -33.099998 0.1
31.299999 -33.5 0.1
31.5 -33.5 0.1
31.5 -33.299999 0.1
31.700001 -33.5 0.1
31.9 -33.5 0.1
31.700001 -33.299999 0.1
31.9 -33.299999 0.1
31.5 -32.900002 0.1
31.9 -33.099998 0.1
31.9 -32.900002 0.1
30.5 -32.700001 0.1
30.5 -32.5 0.1
30.700001 -32.5 0.1
30.9 -32.700001 0.1
30.9 -32.5 0.1
30.700001 -32.299999 0.1
30.5 -32.099998 0.1
30.700001 -32.099998 0.1
30.9 -32.299999 0.1
31.299999 -32.5 0.1
31.5 -32.5 0.1
31.700001 -32.700001 0.1
31.700001 -32.5 0.1
31.9 -32.5 0.1
31.299999 -32.299999 0.1
31.5 -32.299999 0.1
31.299999 -32.099998 0.1
31.700001 -32.299999 0.1
31.9 -32.099998 0.1
32.299999 -34.900002 0.1
32.700001 -34.900002 0.1
32.099998 -34.700001 0.1
32.700001 -34.700001 0.1
32.900002 -34.900002 0.1
33.099998 -34.900002 0.1
33.299999 -34.900002 0.1
33.5 -34.900002 0.1
33.099998 -34.5 0.1
33.299999 -34.700001 0.1
33.299999 -34.5 0.1
32.299999 -34.299999 0.1
32.099998 -34.099998 0.1
32.5 -34.099998 0.1
32.700001 -34.099998 0.1
32.099998 -33.700001 0.1
32.5 -33.900002 0.1
32.5 -33.700001 0.1
32.700001 -33.700001 0.1
32.900002 -34.299999 0.1
33.299999 -34.299999 0.1
33.299999 -34.099998 0.1
33.5 -34.099998 0.1
32.900002 -33.900002 0.1
33.099998 -33.900002 0.1
32.900002 -33.700001 0.1
33.099998 -33.700001 0.1
33.299999 -33.900002 0.1
33.700001 -34.900002 0.1
34.099998 -34.900002 0.1
34.299999 -34.900002 0.1
33.900002 -34.5 0.1
34.299999 -34.700001 0.1
34.900002 -34.900002 0.1
34.5 -34.700001 0.1
34.700001 -34.5 0.1
33.700001 -34.299999 0.1
33.900002 -34.299999 0.1
33.700001 -34.099998 0.1
33.900002 -34.099998 0.1
34.099998 -34.099998 0.1
33.700001 -33.900002 0.1
34.299999 -33.700001 0.1
34.5 -34.299999 0.1
34.700001 -34.299999 0.1
34.5 -34.099998 0.1
34.700001 -34.099998 0.1
34.900002 -34.299999 0.1
34.900002 -34.099998 0.1
34.5 -33.900002 0.1
34.700001 -33.700001 0.1
34.900002 -33.700001 0.1
32.099998 -33.5 0.1
32.5 -33.299999 0.1
32.099998 -33.099998 0.1
32.299999 -33.099998 0.1
32.5 -33.099998 0.1
32.700001 -33.099998 0.1
32.700001 -32.900002 0.1
32.900002 -33.5 0.1
33.5 -33.299999 0.1
32.900002 -33.099998 0.1
33.099998 -33.099998 0.1
33.099998 -32.900002 0.1
33.5 -33.099998 0.1
33.299999 -32.900002 0.1
33.5 -32.900002 0.1
32.299999 -32.700001 0.1
32.5 -32.5 0.1
32.099998 -32.299999 0.1
32.299999 -32.299999 0.1
32.700001 -32.099998 0.1
32.900002 -32.700001 0.1
32.900002 -32.5 0.1
33.299999 -32.700001 0.1
33.5 -32.700001 0.1
33.5 -32.5 0.1
33.099998 -32.099998 0.1
33.299999 -32.299999 0.1
33.5 -32.299999 0.1
33.900002 -33.299999 0.1
34.299999 -33.5 0.1
33.700001 -32.900002 0.1
33.900002 -32.900002 0.1
34.099998 -33.099998 0.1
34.299999 -33.099998 0.1
34.099998 -32.900002 0.1
34.5 -33.5 0.1
34.700001 -33.5 0.1
34.5 -33.299999 0.1
34.700001 -33.299999 0.1
34.5 -33.099998 0.1
34.700001 -33.099998 0.1
34.5 -32.900002 0.1
34.900002 -33.099998 0.1
33.700001 -32.700001 0.1
33.900002 -32.700001 0.1
33.900002 -32.5 0.1
34.099998 -32.5 0.1
33.700001 -32.299999 0.1
34.5 -32.700001 0.1
34.5 -32.5 0.1
34.700001 -32.5 0.1
25.9 -31.9 0.1
25.700001 -31.700001 0.1
25.9 -31.700001 0.1
26.1 -31.9 0.1
26.1 -31.700001 0.1
26.299999 -31.700001 0.1
25.700001 -31.5 0.1
25.9 -31.5 0.1
25.700001 -31.299999 0.1
26.1 -31.5 0.1
26.299999 -31.5 0.1
26.1 -31.299999 0.1
26.299999 -31.299999 0.1
26.5 -31.9 0.1
26.700001 -31.700001 0.1
26.9 -31.9 0.1
27.1 -31.9 0.1
26.9 -31.700001 0.1
26.5 -31.299999 0.1
26.700001 -31.299999 0.1
26.9 -31.5 0.1
26.9 -31.299999 0.1
27.1 -31.299999 0.1
25.9 -31.1 0.1
25.9 -30.9 0.1
26.1 -31.1 0.1
26.299999 -31.1 0.1
25.700001 -30.700001 0.1
25.9 -30.700001 0.1
25.9 -30.5 0.1
26.1 -30.700001 0.1
26.1 -30.5 0.1
26.5 -31.1 0.1
26.700001 -31.1 0.1
26.9 -31.1 0.1
27.1 -31.1 0.1
26.9 -30.9 0.1
27.1 -30.9 0.1
26.5 -30.700001 0.1
26.5 -30.5 0.1
26.700001 -30.5 0.1
27.1 -30.700001 0.1
27.1 -30.5 0.1
27.299999 -31.9 0.1
27.299999 -31.700001 0.1
27.700001 -31.9 0.1
27.700001 -31.700001 0.1
27.299999 -31.5 0.1
27.299999 -31.299999 0.1
27.5 -31.299999 0.1
27.700001 -31.5 0.1
27.9 -31.5 0.1
27.700001 -31.299999 0.1
27.9 -31.299999 0.1
28.299999 -31.700001 0.1
28.700001 -31.9 0.1
28.5 -31.700001 0.1
28.1 -31.5 0.1
28.299999 -31.5 0.1
28.1 -31.299999 0.1
28.5 -31.5 0.1
27.299999 -30.9 0.1
27.5 -30.9 0.1
27.9 -31.1 0.1
27.9 -30.9 0.1
27.299999 -30.700001 0.1
27.299999 -30.5 0.1
27.5 -30.5 0.1
27.700001 -30.5 0.1
27.9 -30.5 0.1
28.1 -31.1 0.1
28.5 -31.1 0.1
28.700001 -31.1 0.1
28.700001 -30.9 0.1
28.1 -30.700001 0.1
28.5 -30.700001 0.1
28.700001 -30.700001 0.1
28.5 -30.5 0.1
25.700001 -30.299999 0.1
25.9 -30.299999 0.1
25.700001 -30.1 0.1
25.9 -30.1 0.1
26.1 -30.1 0.1
26.299999 -30.1 0.1
25.700001 -29.9 0.1
25.9 -29.9 0.1
25.9 -29.700001 0.1
26.1 -29.9 0.1
26.1 -29.700001 0.1
26.299999 -29.700001 0.1
26.5 -30.299999 0.1
26.700001 -30.299999 0.1
26.5 -30.1 0.1
26.700001 -30.1 0.1
26.9 -30.299999 0.1
27.1 -30.299999 0.1
26.9 -30.1 0.1
27.1 -30.1 0.1
26.5 -29.9 0.1
26.5 -29.700001 0.1
26.700001 -29.700001 0.1
26.9 -29.9 0.1
27.1 -29.700001 0.1
25.700001 -29.299999 0.1
26.299999 -29.5 0.1
25.9 -29.1 0.1
25.9 -28.9 0.1
26.1 -29.1 0.1
26.299999 -29.1 0.1
26.700001 -29.5 0.1
26.700001 -29.299999 0.1
26.9 -29.5 0.1
27.1 -29.5 0.1
26.9 -29.299999 0.1
27.1 -29.299999 0.1
26.5 -29.1 0.1
26.700001 -29.1 0.1
26.700001 -28.9 0.1
26.9 -29.1 0.1
27.1 -29.1 0.1
27.299999 -30.299999 0.1
27.5 -30.299999 0.1
27.9 -30.1 0.1
27.5 -29.9 0.1
27.5 -29.700001 0.1
27.700001 -29.9 0.1
27.9 -29.9 0.1
27.700001 -29.700001 0.1
28.299999 -30.299999 0.1
28.1 -30.1 0.1
28.299999 -30.1 0.1
28.5 -30.299999 0.1
28.5 -30.1 0.1
28.700001 -30.1 0.1
28.299999 -29.9 0.1
28.1 -29.700001 0.1
28.299999 -29.700001 0.1
28.5 -29.9 0.1
28.700001 -29.9 0.1
28.5 -29.700001 0.1
28.700001 -29.700001 0.1
27.299999 -29.5 0.1
27.5 -29.5 0.1
27.299999 -29.299999 0.1
27.5 -29.299999 0.1
27.9 -29.5 0.1
27.700001 -29.299999 0.1
27.299999 -29.1 0.1
27.299999 -28.9 0.1
27.5 -28.9 0.1
27.9 -29.1 0.1
27.700001 -28.9 0.1
27.9 -28.9 0.1
28.1 -29.5 0.1
28.1 -29.299999 0.1
28.299999 -29.299999 0.1
28.5 -29.5 0.1
28.700001 -29.5 0.1
28.5 -29.299999 0.1
28.700001 -29.299999 0.1
28.1 -29.1 0.1
28.299999 -29.1 0.1
28.5 -29.1 0.1
28.700001 -29.1 0.1
28.5 -28.9 0.1
28.700001 -28.9 0.1
28.9 -31.9 0.1
29.1 -31.9 0.1
28.9 -31.700001 0.1
29.1 -31.700001 0.1
29.299999 -31.9 0.1
29.299999 -31.700001 0.1
29.5 -31.700001 0.1
28.9 -31.299999 0.1
29.1 -31.299999 0.1
29.299999 -31.5 0.1
29.5 -31.5 0.1
29.299999 -31.299999 0.1
29.700001 -31.9 0.1
29.9 -31.9 0.1
30.1 -31.9 0.1
30.299999 -31.9 0.1
29.9 -31.5 0.1
29.9 -31.299999 0.1
30.1 -31.5 0.1
30.299999 -31.5 0.1
29.299999 -30.9 0.1
29.5 -30.9 0.1
29.1 -30.700001 0.1
29.1 -30.5 0.1
29.299999 -30.5 0.1
29.5 -30.5 0.1
29.700001 -31.1 0.1
29.700001 -30.9 0.1
29.9 -30.9 0.1
30.1 -31.1 0.1
30.299999 -31.1 0.1
30.299999 -30.9 0.1
29.700001 -30.700001 0.1
29.9 -30.700001 0.1
29.700001 -30.5 0.1
29.9 -30.5 0.1
30.299999 -30.5 0.1
30.5 -31.9 0.1
30.9 -31.9 0.1
31.1 -31.9 0.1
30.9 -31.700001 0.1
31.1 -31.700001 0.1
30.5 -31.5 0.1
30.700001 -31.299999 0.1
30.9 -31.5 0.1
30.9 -31.299999 0.1
31.1 -31.299999 0.1
31.299999 -31.9 0.1
31.5 -31.9 0.1
31.299999 -31.700001 0.1
31.700001 -31.9 0.1
31.9 -31.9 0.1
31.700001 -31.700001 0.1
31.9 -31.700001 0.1
31.5 -31.5 0.1
31.299999 -31.299999 0.1
31.5 -31.299999 0.1
31.700001 -31.299999 0.1
31.9 -31.299999 0.1
30.5 -31.1 0.1
30.9 -31.1 0.1
31.1 -31.1 0.1
31.1 -30.9 0.1
30.5 -30.700001 0.1
30.5 -30.5 0.1
30.9 -30.700001 0.1
31.299999 -31.1 0.1
31.5 -31.1 0.1
31.299999 -30.9 0.1
31.700001 -31.1 0.1
31.9 -31.1 0.1
31.9 -30.9 0.1
31.299999 -30.700001 0.1
31.5 -30.5 0.1
31.700001 -30.700001 0.1
31.700001 -30.5 0.1
31.9 -30.5 0.1
28.9 -30.299999 0.1
29.1 -30.299999 0.1
28.9 -29.9 0.1
29.1 -29.9 0.1
28.9 -29.700001 0.1
29.1 -29.700001 0.1
29.5 -29.9 0.1
29.5 -29.700001 0.1
29.700001 -30.1 0.1
29.9 -30.1 0.1
30.299999 -30.1 0.1
29.9 -29.9 0.1
29.700001 -29.700001 0.1
29.9 -29.700001 0.1
30.299999 -29.9 0.1
30.1 -29.700001 0.1
30.299999 -29.700001 0.1
28.9 -29.5 0.1
28.9 -29.299999 0.1
29.1 -29.299999 0.1
29.299999 -29.5 0.1
29.5 -29.5 0.1
29.299999 -29.299999 0.1
28.9 -29.1 0.1
29.1 -29.1 0.1
28.9 -28.9 0.1
29.1 -28.9 0.1
29.299999 -29.1 0.1
29.5 -29.1 0.1
29.299999 -28.9 0.1
29.700001 -29.5 0.1
29.9 -29.5 0.1
29.9 -29.299999 0.1
30.299999 -29.5 0.1
30.1 -29.299999 0.1
30.299999 -29.299999 0.1
29.700001 -29.1 0.1
29.9 -29.1 0.1
30.1 -29.1 0.1
30.700001 -30.299999 0.1
30.5 -30.1 0.1
30.700001 -30.1 0.1
31.1 -30.1 0.1
30.5 -29.9 0.1
30.700001 -29.9 0.1
30.9 -29.9 0.1
31.1 -29.9 0.1
31.299999 -30.299999 0.1
31.5 -30.299999 0.1
31.700001 -30.299999 0.1
31.9 -30.299999 0.1
31.700001 -30.1 0.1
31.9 -30.1 0.1
31.299999 -29.9 0.1
31.5 -29.9 0.1
30.5 -29.5 0.1
30.700001 -29.5 0.1
30.5 -29.299999 0.1
31.1 -29.299999 0.1
30.5 -28.9 0.1
30.700001 -28.9 0.1
30.9 -29.1 0.1
31.1 -29.1 0.1
31.1 -28.9 0.1
31.299999 -29.5 0.1
31.5 -29.5 0.1
31.700001 -29.5 0.1
31.9 -29.5 0.1
31.299999 -29.1 0.1
31.700001 -29.1 0.1
31.9 -29.1 0.1
25.700001 -28.700001 0.1
25.9 -28.700001 0.1
26.1 -28.700001 0.1
26.299999 -28.700001 0.1
26.1 -28.5 0.1
25.700001 -28.299999 0.1
25.9 -28.299999 0.1
25.9 -28.1 0.1
26.1 -28.299999 0.1
26.299999 -28.1 0.1
26.5 -28.700001 0.1
26.5 -28.5 0.1
26.9 -28.700001 0.1
27.1 -28.700001 0.1
27.1 -28.5 0.1
26.700001 -28.299999 0.1
26.9 -28.1 0.1
27.1 -28.1 0.1
25.700001 -27.9 0.1
25.9 -27.9 0.1
25.700001 -27.700001 0.1
26.1 -27.9 0.1
26.299999 -27.9 0.1
26.1 -27.700001 0.1
26.299999 -27.700001 0.1
25.700001 -27.5 0.1
25.9 -27.5 0.1
25.700001 -27.299999 0.1
26.1 -27.5 0.1
26.1 -27.299999 0.1
26.299999 -27.299999 0.1
26.5 -27.9 0.1
26.700001 -27.9 0.1
26.5 -27.700001 0.1
26.700001 -27.700001 0.1
26.9 -27.9 0.1
26.9 -27.700001 0.1
27.1 -27.700001 0.1
26.5 -27.5 0.1
26.5 -27.299999 0.1
26.700001 -27.299999 0.1
26.9 -27.5 0.1
27.1 -27.5 0.1
26.9 -27.299999 0.1
27.1 -27.299999 0.1
27.299999 -28.700001 0.1
27.299999 -28.5 0.1
27.700001 -28.700001 0.1
27.9 -28.700001 0.1
27.700001 -28.5 0.1
27.299999 -28.299999 0.1
27.5 -28.299999 0.1
27.299999 -28.1 0.1
27.5 -28.1 0.1
27.700001 -28.299999 0.1
27.9 -28.299999 0.1
28.299999 -28.700001 0.1
28.1 -28.5 0.1
28.299999 -28.5 0.1
28.5 -28.700001 0.1
28.5 -28.5 0.1
28.700001 -28.5 0.1
28.1 -28.299999 0.1
28.299999 -28.299999 0.1
28.299999 -28.1 0.1
28.5 -28.299999 0.1
28.700001 -28.299999 0.1
28.5 -28.1 0.1
28.700001 -28.1 0.1
27.5 -27.9 0.1
27.299999 -27.700001 0.1
27.5 -27.700001 0.1
27.700001 -27.9 0.1
27.9 -27.9 0.1
27.700001 -27.700001 0.1
27.9 -27.700001 0.1
27.299999 -27.5 0.1
27.5 -27.5 0.1
27.299999 -27.299999 0.1
27.5 -27.299999 0.1
27.700001 -27.5 0.1
27.9 -27.5 0.1
27.9 -27.299999 0.1
28.1 -27.9 0.1
28.299999 -27.700001 0.1
28.5 -27.9 0.1
28.700001 -27.9 0.1
28.5 -27.700001 0.1
28.700001 -27.700001 0.1
28.1 -27.5 0.1
28.299999 -27.5 0.1
28.1 -27.299999 0.1
28.299999 -27.299999 0.1
28.700001 -27.5 0.1
28.5 -27.299999 0.1
28.700001 -27.299999 0.1
25.9 -27.1 0.1
25.9 -26.9 0.1
26.1 -27.1 0.1
26.299999 -27.1 0.1
26.1 -26.9 0.1
26.299999 -26.9 0.1
25.9 -26.700001 0.1
26.1 -26.5 0.1
26.299999 -26.5 0.1
26.700001 -27.1 0.1
26.5 -26.9 0.1
26.9 -27.1 0.1
27.1 -27.1 0.1
26.9 -26.9 0.1
27.1 -26.9 0.1
26.5 -26.700001 0.1
26.700001 -26.700001 0.1
26.5 -26.5 0.1
26.700001 -26.5 0.1
27.1 -26.700001 0.1
27.1 -26.5 0.1
25.700001 -26.1 0.1
26.299999 -26.299999 0.1
25.700001 -25.9 0.1
25.700001 -25.700001 0.1
26.1 -25.9 0.1
26.9 -26.299999 0.1
26.9 -26.1 0.1
27.1 -26.1 0.1
26.700001 -25.9 0.1
27.1 -25.9 0.1
26.9 -25.700001 0.1
27.1 -25.700001 0.1
27.299999 -27.1 0.1
27.299999 -26.9 0.1
27.5 -26.9 0.1
27.9 -27.1 0.1
27.700001 -26.9 0.1
27.9 -26.9 0.1
27.5 -26.700001 0.1
27.299999 -26.5 0.1
27.5 -26.5 0.1
27.700001 -26.700001 0.1
27.9 -26.700001 0.1
27.700001 -26.5 0.1
27.9 -26.5 0.1
28.1 -27.1 0.1
28.299999 -27.1 0.1
28.1 -26.9 0.1
28.299999 -26.9 0.1
28.700001 -27.1 0.1
28.5 -26.9 0.1
28.700001 -26.9 0.1
28.1 -26.700001 0.1
28.1 -26.5 0.1
28.299999 -26.5 0.1
28.5 -26.700001 0.1
28.700001 -26.700001 0.1
28.5 -26.5 0.1
28.700001 -26.5 0.1
27.299999 -26.1 0.1
27.5 -26.1 0.1
27.700001 -26.299999 0.1
27.9 -26.299999 0.1
27.9 -26.1 0.1
27.5 -25.9 0.1
27.299999 -25.700001 0.1
27.5 -25.700001 0.1
27.700001 -25.9 0.1
27.9 -25.9 0.1
27.700001 -25.700001 0.1
28.1 -26.299999 0.1
28.299999 -26.299999 0.1
28.1 -26.1 0.1
28.5 -26.299999 0.1
28.700001 -26.299999 0.1
28.5 -26.1 0.1
28.700001 -26.1 0.1
28.1 -25.9 0.1
28.299999 -25.9 0.1
28.1 -25.700001 0.1
28.5 -25.9 0.1
28.700001 -25.700001 0.1
28.9 -28.700001 0.1
29.1 -28.700001 0.1
28.9 -28.5 0.1
29.299999 -28.700001 0.1
29.5 -28.700001 0.1
28.9 -28.299999 0.1
29.1 -28.299999 0.1
28.9 -28.1 0.1
29.1 -28.1 0.1
29.299999 -28.299999 0.1
29.5 -28.299999 0.1
29.299999 -28.1 0.1
29.5 -28.1 0.1
29.700001 -28.700001 0.1
29.9 -28.700001 0.1
30.1 -28.700001 0.1
30.299999 -28.700001 0.1
30.1 -28.5 0.1
30.299999 -28.5 0.1
29.700001 -28.299999 0.1
29.9 -28.299999 0.1
29.9 -28.1 0.1
30.1 -28.299999 0.1
30.299999 -28.299999 0.1
30.1 -28.1 0.1
30.299999 -28.1 0.1
28.9 -27.9 0.1
29.1 -27.9 0.1
28.9 -27.700001 0.1
29.299999 -27.9 0.1
29.5 -27.9 0.1
29.5 -27.700001 0.1
28.9 -27.5 0.1
29.1 -27.5 0.1
28.9 -27.299999 0.1
29.1 -27.299999 0.1
29.299999 -27.5 0.1
29.5 -27.5 0.1
29.299999 -27.299999 0.1
29.5 -27.299999 0.1
29.700001 -27.9 0.1
29.9 -27.9 0.1
29.700001 -27.700001 0.1
29.9 -27.700001 0.1
30.1 -27.9 0.1
30.299999 -27.9 0.1
30.1 -27.700001 0.1
30.299999 -27.700001 0.1
29.700001 -27.5 0.1
29.700001 -27.299999 0.1
29.9 -27.299999 0.1
30.1 -27.299999 0.1
30.299999 -27.299999 0.1
30.700001 -28.700001 0.1
30.5 -28.5 0.1
30.700001 -28.5 0.1
30.9 -28.5 0.1
30.5 -28.299999 0.1
30.9 -28.299999 0.1
31.1 -28.299999 0.1
30.9 -28.1 0.1
31.1 -28.1 0.1
31.299999 -28.700001 0.1
31.5 -28.700001 0.1
31.299999 -28.5 0.1
31.5 -28.5 0.1
31.700001 -28.700001 0.1
31.9 -28.700001 0.1
31.700001 -28.5 0.1
31.9 -28.5 0.1
31.299999 -28.299999 0.1
31.5 -28.299999 0.1
31.5 -28.1 0.1
31.9 -28.299999 0.1
31.700001 -28.1 0.1
31.9 -28.1 0.1
30.700001 -27.9 0.1
30.5 -27.700001 0.1
30.700001 -27.700001 0.1
31.1 -27.9 0.1
30.9 -27.700001 0.1
31.1 -27.700001 0.1
30.700001 -27.5 0.1
30.5 -27.299999 0.1
30.9 -27.5 0.1
31.1 -27.5 0.1
30.9 -27.299999 0.1
31.1 -27.299999 0.1
31.299999 -27.700001 0.1
31.5 -27.700001 0.1
31.700001 -27.700001 0.1
31.9 -27.700001 0.1
31.299999 -27.299999 0.1
31.700001 -27.5 0.1
31.9 -27.5 0.1
31.700001 -27.299999 0.1
28.9 -27.1 0.1
28.9 -26.9 0.1
29.1 -26.9 0.1
29.299999 -27.1 0.1
29.299999 -26.9 0.1
29.5 -26.9 0.1
28.9 -26.700001 0.1
29.1 -26.700001 0.1
28.9 -26.5 0.1
29.1 -26.5 0.1
29.5 -26.700001 0.1
29.299999 -26.5 0.1
29.5 -26.5 0.1
29.700001 -27.1 0.1
29.700001 -26.9 0.1
29.9 -26.9 0.1
30.299999 -27.1 0.1
30.1 -26.9 0.1
30.299999 -26.9 0.1
29.700001 -26.700001 0.1
29.9 -26.700001 0.1
29.700001 -26.5 0.1
29.9 -26.5 0.1
30.1 -26.700001 0.1
30.299999 -26.700001 0.1
30.1 -26.5 0.1
30.299999 -26.5 0.1
28.9 -26.299999 0.1
28.9 -26.1 0.1
29.1 -26.1 0.1
29.5 -26.299999 0.1
29.299999 -26.1 0.1
29.5 -26.1 0.1
28.9 -25.9 0.1
29.1 -25.9 0.1
28.9 -25.700001 0.1
29.1 -25.700001 0.1
29.299999 -25.9 0.1
29.5 -25.9 0.1
29.299999 -25.700001 0.1
29.5 -25.700001 0.1
29.700001 -26.299999 0.1
29.9 -26.299999 0.1
29.9 -26.1 0.1
30.1 -26.299999 0.1
30.299999 -26.299999 0.1
30.1 -26.1 0.1
30.299999 -26.1 0.1
29.700001 -25.9 0.1
29.9 -25.9 0.1
29.700001 -25.700001 0.1
29.9 -25.700001 0.1
30.1 -25.700001 0.1
30.299999 -25.700001 0.1
30.5 -27.1 0.1
30.700001 -27.1 0.1
30.5 -26.9 0.1
30.700001 -26.9 0.1
30.9 -27.1 0.1
31.1 -27.1 0.1
30.5 -26.700001 0.1
30.700001 -26.700001 0.1
30.5 -26.5 0.1
30.9 -26.700001 0.1
31.1 -26.700001 0.1
31.1 -26.5 0.1
31.299999 -27.1 0.1
31.5 -27.1 0.1
31.299999 -26.9 0.1
31.5 -26.9 0.1
31.9 -27.1 0.1
31.9 -26.9 0.1
31.299999 -26.700001 0.1
31.5 -26.700001 0.1
31.5 -26.5 0.1
31.700001 -26.700001 0.1
31.9 -26.700001 0.1
31.700001 -26.5 0.1
31.9 -26.5 0.1
30.5 -26.299999 0.1
30.700001 -26.299999 0.1
30.5 -26.1 0.1
30.700001 -26.1 0.1
30.9 -26.299999 0.1
31.1 -26.299999 0.1
30.9 -26.1 0.1
31.1 -26.1 0.1
30.5 -25.9 0.1
30.700001 -25.9 0.1
30.5 -25.700001 0.1
30.700001 -25.700001 0.1
30.9 -25.9 0.1
31.1 -25.9 0.1
31.1 -25.700001 0.1
31.5 -26.1 0.1
31.700001 -26.299999 0.1
31.9 -26.299999 0.1
31.700001 -26.1 0.1
31.9 -26.1 0.1
31.299999 -25.9 0.1
31.5 -25.9 0.1
31.299999 -25.700001 0.1
31.5 -25.700001 0.1
31.700001 -25.9 0.1
31.9 -25.9 0.1
31.700001 -25.700001 0.1
31.9 -25.700001 0.1
32.099998 -31.9 0.1
32.700001 -31.9 0.1
32.700001 -31.700001 0.1
32.299999 -31.5 0.1
32.099998 -31.299999 0.1
32.299999 -31.299999 0.1
32.5 -31.5 0.1
32.700001 -31.5 0.1
32.5 -31.299999 0.1
32.900002 -31.9 0.1
33.099998 -31.9 0.1
33.299999 -31.9 0.1
33.5 -31.9 0.1
33.299999 -31.700001 0.1
32.900002 -31.5 0.1
32.900002 -31.299999 0.1
33.099998 -31.299999 0.1
33.299999 -31.299999 0.1
33.5 -31.299999 0.1
32.099998 -31.1 0.1
32.099998 -30.9 0.1
32.299999 -30.9 0.1
32.5 -31.1 0.1
32.700001 -31.1 0.1
32.5 -30.9 0.1
32.700001 -30.9 0.1
32.099998 -30.5 0.1
32.299999 -30.5 0.1
32.5 -30.700001 0.1
32.700001 -30.700001 0.1
32.700001 -30.5 0.1
32.900002 -31.1 0.1
33.099998 -31.1 0.1
33.099998 -30.9 0.1
33.299999 -31.1 0.1
33.299999 -30.9 0.1
33.5 -30.9 0.1
32.900002 -30.700001 0.1
33.099998 -30.700001 0.1
32.900002 -30.5 0.1
33.099998 -30.5 0.1
33.299999 -30.700001 0.1
33.5 -30.700001 0.1
33.299999 -30.5 0.1
33.5 -30.5 0.1
33.700001 -31.9 0.1
33.900002 -31.9 0.1
33.900002 -31.700001 0.1
33.700001 -31.5 0.1
33.700001 -31.299999 0.1
33.900002 -31.299999 0.1
34.299999 -31.5 0.1
34.099998 -31.299999 0.1
34.299999 -31.299999 0.1
34.5 -31.9 0.1
34.700001 -31.9 0.1
34.900002 -31.9 0.1
34.700001 -31.5 0.1
34.5 -31.299999 0.1
34.700001 -31.299999 0.1
34.900002 -31.5 0.1
33.700001 -30.9 0.1
33.900002 -30.9 0.1
34.099998 -31.1 0.1
34.299999 -31.1 0.1
34.099998 -30.9 0.1
34.299999 -30.9 0.1
33.700001 -30.700001 0.1
33.900002 -30.5 0.1
34.099998 -30.5 0.1
34.299999 -30.5 0.1
34.5 -31.1 0.1
34.700001 -31.1 0.1
34.700001 -30.9 0.1
34.900002 -31.1 0.1
34.900002 -30.9 0.1
34.5 -30.700001 0.1
34.700001 -30.700001 0.1
34.5 -30.5 0.1
34.700001 -30.5 0.1
34.900002 -30.5 0.1
32.099998 -30.299999 0.1
32.299999 -30.299999 0.1
32.099998 -30.1 0.1
32.299999 -30.1 0.1
32.5 -30.299999 0.1
32.700001 -30.299999 0.1
32.5 -30.1 0.1
32.700001 -30.1 0.1
32.099998 -29.9 0.1
32.299999 -29.9 0.1
32.5 -29.9 0.1
32.700001 -29.9 0.1
32.700001 -29.700001 0.1
32.900002 -30.299999 0.1
32.900002 -30.1 0.1
33.099998 -30.1 0.1
33.299999 -30.299999 0.1
33.5 -30.299999 0.1
33.299999 -30.1 0.1
33.5 -30.1 0.1
32.900002 -29.9 0.1
33.099998 -29.9 0.1
32.900002 -29.700001 0.1
33.099998 -29.700001 0.1
33.299999 -29.9 0.1
33.299999 -29.700001 0.1
32.099998 -29.5 0.1
32.299999 -29.5 0.1
32.700001 -29.5 0.1
32.099998 -28.9 0.1
32.900002 -29.5 0.1
33.099998 -29.5 0.1
33.5 -29.299999 0.1
33.099998 -29.1 0.1
32.900002 -28.9 0.1
33.099998 -28.9 0.1
33.5 -29.1 0.1
33.299999 -28.9 0.1
33.700001 -30.299999 0.1
33.900002 -30.1 0.1
34.099998 -29.9 0.1
34.700001 -30.299999 0.1
34.700001 -30.1 0.1
34.900002 -30.299999 0.1
34.900002 -30.1 0.1
34.5 -29.9 0.1
34.900002 -29.700001 0.1
33.700001 -29.5 0.1
33.700001 -29.299999 0.1
34.099998 -29.5 0.1
34.299999 -29.5 0.1
34.099998 -29.299999 0.1
34.299999 -29.299999 0.1
33.700001 -28.9 0.1
33.900002 -28.9 0.1
34.099998 -29.1 0.1
34.299999 -29.1 0.1
34.099998 -28.9 0.1
34.299999 -28.9 0.1
34.700001 -29.5 0.1
34.700001 -29.299999 0.1
34.900002 -29.5 0.1
34.900002 -29.299999 0.1
34.5 -29.1 0.1
34.700001 -29.1 0.1
34.900002 -29.1 0.1
34.900002 -28.9 0.1
32.099998 -28.700001 0.1
32.299999 -28.700001 0.1
32.299999 -28.5 0.1
32.5 -28.700001 0.1
32.5 -28.5 0.1
32.700001 -28.5 0.1
32.099998 -28.299999 0.1
32.299999 -28.299999 0.1
32.099998 -28.1 0.1
32.299999 -28.1 0.1
32.5 -28.299999 0.1
32.5 -28.1 0.1
32.700001 -28.1 0.1
33.099998 -28.700001 0.1
32.900002 -28.5 0.1
33.099998 -28.5 0.1
33.299999 -28.700001 0.1
33.5 -28.700001 0.1
33.299999 -28.5 0.1
32.900002 -28.299999 0.1
32.900002 -28.1 0.1
33.099998 -28.1 0.1
33.5 -28.299999 0.1
33.299999 -28.1 0.1
33.5 -28.1 0.1
32.099998 -27.9 0.1
32.099998 -27.700001 0.1
32.299999 -27.700001 0.1
32.5 -27.9 0.1
32.700001 -27.9 0.1
32.5 -27.700001 0.1
32.5 -27.299999 0.1
32.700001 -27.299999 0.1
32.900002 -27.9 0.1
33.099998 -27.9 0.1
33.099998 -27.700001 0.1
33.299999 -27.700001 0.1
33.5 -27.700001 0.1
32.900002 -27.5 0.1
32.900002 -27.299999 0.1
33.099998 -27.299999 0.1
33.299999 -27.5 0.1
33.299999 -27.299999 0.1
33.5 -27.299999 0.1
33.700001 -28.5 0.1
33.900002 -28.5 0.1
34.099998 -28.5 0.1
33.700001 -28.299999 0.1
33.900002 -28.1 0.1
34.299999 -28.1 0.1
34.5 -28.700001 0.1
34.5 -28.5 0.1
34.700001 -28.5 0.1
34.900002 -28.5 0.1
34.700001 -28.299999 0.1
34.700001 -28.1 0.1
34.900002 -28.299999 0.1
34.900002 -28.1 0.1
33.700001 -27.700001 0.1
33.900002 -27.700001 0.1
34.099998 -27.700001 0.1
33.700001 -27.5 0.1
33.700001 -27.299999 0.1
33.900002 -27.299999 0.1
34.099998 -27.299999 0.1
34.299999 -27.299999 0.1
