# .PCD v0.7 - Point Cloud Data file format
VERSION 0.7
FIELDS x y z
SIZE 4 4 4
TYPE F F F
COUNT 1 1 1
WIDTH 2350
HEIGHT 1
VIEWPOINT 0 0 0 1 0 0 0
POINTS 2350
DATA ascii
15.9 -25.9 8.5
15.7 -25.700001 8.5
15.9 -25.700001 8.5
15.7 -25.9 8.6999998
15.7 -25.700001 8.6999998
15.7 -27.1 8.8999996
15.9 -27.1 8.8999996
15.7 -26.9 8.8999996
15.9 -26.9 8.8999996
15.7 -26.700001 8.8999996
15.9 -26.700001 8.8999996
15.7 -26.5 8.8999996
15.7 -26.299999 8.8999996
15.9 -26.299999 8.8999996
15.9 -26.1 8.8999996
15.7 -25.9 8.8999996
15.9 -25.9 8.8999996
15.7 -25.700001 8.8999996
15.9 -25.700001 8.8999996
16.1 -28.5 7.5
16.1 -28.5 7.6999998
16.1 -28.5 7.9000001
18.700001 -28.700001 6.5
18.9 -28.700001 6.5
16.1 -28.5 8.1000004
16.700001 -28.700001 8.3000002
16.299999 -28.700001 8.5
16.299999 -28.5 8.5
16.299999 -28.5 8.6999998
16.5 -28.700001 8.5
16.700001 -28.700001 8.5
16.5 -28.5 8.5
16.700001 -28.5 8.5
16.5 -28.5 8.6999998
16.700001 -28.5 8.6999998
16.9 -28.700001 8.3000002
16.9 -28.700001 8.5
17.1 -28.700001 8.5
16.9 -28.5 8.5
17.1 -28.5 8.5
16.9 -28.5 8.6999998
17.1 -28.5 8.6999998
17.299999 -28.700001 8.5
17.5 -28.700001 8.5
17.299999 -28.5 8.5
17.5 -28.5 8.5
17.299999 -28.5 8.6999998
17.5 -28.5 8.6999998
16.1 -28.5 9.1000004
16.1 -28.299999 9.1000004
16.1 -28.700001 9.3000002
16.1 -28.5 9.3000002
16.299999 -28.5 9.3000002
16.1 -28.5 9.5
16.299999 -28.5 9.5
16.5 -28.5 9.3000002
16.700001 -28.5 9.3000002
16.5 -28.5 9.5
16.700001 -28.5 9.5
16.1 -28.299999 9.5
16.9 -28.5 8.8999996
17.1 -28.5 8.8999996
17.299999 -28.5 8.8999996
17.5 -28.5 8.8999996
17.299999 -28.5 9.1000004
16.9 -28.5 9.5
17.1 -28.5 9.5
17.700001 -28.700001 8.5
17.9 -28.700001 8.5
17.700001 -28.5 8.5
17.9 -28.5 8.5
17.700001 -28.5 8.6999998
17.9 -28.5 8.6999998
18.1 -28.700001 8.5
18.299999 -28.700001 8.5
18.1 -28.5 8.5
18.299999 -28.5 8.5
18.1 -28.5 8.6999998
18.299999 -28.5 8.6999998
18.5 -28.700001 8.5
18.700001 -28.700001 8.5
18.5 -28.5 8.5
18.700001 -28.5 8.5
18.5 -28.5 8.6999998
18.700001 -28.5 8.6999998
18.9 -28.700001 8.5
19.1 -28.700001 8.5
18.9 -28.5 8.5
19.1 -28.5 8.5
18.9 -28.5 8.6999998
19.1 -28.5 8.6999998
17.700001 -28.700001 8.8999996
17.9 -28.700001 8.8999996
17.700001 -28.5 8.8999996
17.9 -28.5 8.8999996
17.700001 -28.700001 9.1000004
17.9 -28.700001 9.1000004
17.700001 -28.5 9.1000004
17.9 -28.5 9.1000004
18.299999 -28.700001 8.8999996
18.1 -28.5 8.8999996
18.299999 -28.5 8.8999996
18.299999 -28.700001 9.1000004
18.1 -28.5 9.1000004
18.299999 -28.5 9.1000004
18.5 -28.700001 8.8999996
18.700001 -28.700001 8.8999996
18.5 -28.5 8.8999996
18.700001 -28.5 8.8999996
18.5 -28.700001 9.1000004
18.700001 -28.700001 9.1000004
18.5 -28.5 9.1000004
18.700001 -28.5 9.1000004
18.9 -28.5 8.8999996
19.1 -28.5 8.8999996
18.9 -28.700001 9.1000004
19.1 -28.700001 9.1000004
18.9 -28.5 9.1000004
19.1 -28.5 9.1000004
15.7 -28.700001 9.6999998
15.7 -28.5 9.6999998
15.7 -28.700001 9.8999996
15.7 -28.5 9.8999996
15.9 -28.299999 9.6999998
15.7 -28.299999 9.8999996
15.9 -28.299999 9.8999996
15.7 -28.700001 10.1
15.7 -28.5 10.1
15.7 -28.5 10.3
15.9 -28.5 10.3
15.9 -28.299999 10.1
15.9 -28.299999 10.3
15.7 -28.700001 10.5
15.9 -28.700001 10.5
15.7 -28.5 10.5
15.9 -28.5 10.5
15.7 -28.700001 10.7
15.7 -28.5 10.7
15.9 -28.5 10.7
15.9 -28.299999 10.5
15.9 -28.299999 10.7
15.7 -28.700001 10.9
15.7 -28.5 10.9
15.9 -28.5 10.9
15.7 -28.5 11.1
15.9 -28.5 11.1
15.9 -28.299999 10.9
15.9 -28.299999 11.1
15.9 -28.700001 11.3
15.7 -28.5 11.3
15.9 -28.5 11.3
15.7 -28.5 11.5
15.9 -28.5 11.5
15.9 -28.299999 11.3
15.9 -28.299999 11.5
15.9 -28.5 11.7
15.9 -28.5 11.9
15.9 -28.299999 11.7
15.9 -28.299999 11.9
15.9 -28.5 12.1
15.9 -28.299999 12.1
15.9 -28.299999 12.3
15.9 -28.5 12.7
15.9 -28.299999 12.5
15.9 -28.1 12.5
15.9 -28.299999 12.7
15.9 -26.700001 11.9
15.9 -26.5 11.9
15.9 -25.700001 11.3
15.9 -25.700001 11.5
15.9 -26.299999 11.7
15.9 -26.1 11.7
15.9 -25.9 11.7
15.9 -26.9 12.1
16.700001 -28.5 9.6999998
16.1 -28.299999 9.6999998
16.1 -28.299999 9.8999996
16.1 -28.299999 10.1
16.1 -28.299999 10.3
16.299999 -28.299999 10.3
16.9 -28.5 9.6999998
17.1 -28.5 9.6999998
17.1 -28.5 9.8999996
17.299999 -28.5 9.6999998
17.5 -28.5 9.6999998
17.299999 -28.5 9.8999996
17.5 -28.5 9.8999996
17.5 -28.5 10.1
16.1 -28.299999 10.5
16.299999 -28.299999 10.5
16.1 -28.299999 10.7
16.299999 -28.299999 10.7
16.1 -28.299999 10.9
16.299999 -28.299999 10.9
16.1 -28.299999 11.1
16.299999 -28.299999 11.1
17.700001 -28.5 9.8999996
17.9 -28.5 9.8999996
18.1 -28.5 9.8999996
17.700001 -28.299999 9.8999996
17.700001 -28.5 10.1
17.9 -28.5 10.1
17.9 -28.5 10.3
18.1 -28.5 10.1
18.299999 -28.5 10.1
18.1 -28.5 10.3
18.299999 -28.5 10.3
17.9 -28.299999 10.1
18.1 -28.299999 10.1
18.299999 -28.299999 10.1
18.299999 -28.299999 10.3
18.5 -28.5 10.3
18.700001 -28.5 10.3
18.5 -28.299999 10.1
18.5 -28.299999 10.3
18.700001 -28.299999 10.3
18.9 -28.299999 10.3
19.1 -28.299999 10.3
18.299999 -28.5 10.5
18.5 -28.5 10.5
18.700001 -28.5 10.5
18.700001 -28.5 10.7
18.9 -28.5 10.5
19.1 -28.5 10.5
18.9 -28.5 10.7
19.1 -28.5 10.7
18.700001 -28.299999 10.5
18.9 -28.299999 10.5
19.1 -28.299999 10.5
18.9 -28.299999 10.7
19.1 -28.299999 10.7
19.1 -28.5 10.9
16.1 -28.299999 11.3
16.299999 -28.299999 11.3
16.1 -28.1 11.3
16.1 -28.299999 11.5
16.299999 -28.299999 11.5
16.1 -28.1 11.5
16.1 -28.299999 11.7
16.299999 -28.299999 11.7
16.1 -28.1 11.7
16.1 -28.299999 11.9
16.299999 -28.299999 11.9
16.1 -28.1 11.9
16.299999 -28.1 11.9
16.1 -28.299999 12.1
16.299999 -28.299999 12.1
16.1 -28.1 12.1
16.299999 -28.1 12.1
16.1 -28.299999 12.3
16.299999 -28.299999 12.3
16.1 -28.1 12.3
16.299999 -28.1 12.3
16.1 -28.1 12.5
16.299999 -28.1 12.5
16.1 -28.1 12.7
16.1 -27.700001 12.3
16.1 -27.5 12.1
16.1 -27.299999 12.1
16.1 -27.5 12.3
16.1 -27.299999 12.3
16.1 -27.9 12.5
16.1 -27.700001 12.5
16.1 -27.9 12.7
16.1 -27.700001 12.7
16.1 -27.5 12.5
16.1 -27.299999 12.5
16.1 -27.5 12.7
16.1 -27.299999 12.7
17.700001 -28.299999 12.7
17.9 -28.299999 12.7
18.1 -28.299999 12.7
18.299999 -28.299999 12.7
18.5 -28.299999 12.7
18.700001 -28.299999 12.7
18.9 -28.299999 12.7
19.1 -28.299999 12.7
16.1 -26.9 11.7
16.1 -27.1 11.9
16.1 -26.9 11.9
16.1 -26.700001 11.7
16.1 -26.5 11.7
16.1 -26.700001 11.9
16.1 -26.5 11.9
16.1 -26.1 11.3
16.1 -26.299999 11.5
16.1 -26.1 11.5
16.1 -25.9 11.3
16.1 -25.700001 11.3
16.1 -26.299999 11.7
16.1 -26.1 11.7
16.1 -26.299999 11.9
16.1 -25.9 11.7
16.1 -25.700001 11.7
16.1 -27.1 12.1
16.1 -26.9 12.1
16.1 -27.1 12.3
16.1 -26.9 12.3
16.1 -26.700001 12.1
16.1 -27.1 12.5
16.1 -27.1 12.7
16.1 -26.9 12.7
16.1 -26.700001 12.7
16.1 -26.5 12.7
16.1 -26.299999 12.7
16.1 -26.1 12.7
16.1 -25.9 12.7
16.1 -25.700001 12.7
19.5 -28.9 6.6999998
19.9 -28.9 6.5
19.700001 -28.9 6.9000001
20.1 -28.9 6.5
20.5 -28.9 6.6999998
23.9 -28.9 6.5
23.700001 -28.9 7.0999999
23.700001 -28.9 7.3000002
23.700001 -28.9 7.9000001
19.5 -28.700001 6.6999998
19.700001 -28.700001 6.5
19.9 -28.700001 6.5
19.700001 -28.700001 6.6999998
19.9 -28.700001 6.6999998
19.700001 -28.700001 6.9000001
19.9 -28.700001 6.9000001
20.1 -28.700001 6.5
20.299999 -28.700001 6.5
20.1 -28.700001 6.6999998
20.299999 -28.700001 6.6999998
20.5 -28.700001 6.6999998
20.700001 -28.700001 6.6999998
20.1 -28.700001 6.9000001
20.299999 -28.700001 6.9000001
20.299999 -28.5 6.9000001
20.1 -28.700001 7.0999999
20.299999 -28.700001 7.0999999
20.5 -28.700001 6.9000001
20.700001 -28.700001 6.9000001
20.5 -28.700001 7.0999999
20.700001 -28.700001 7.0999999
20.700001 -28.700001 7.3000002
20.9 -28.700001 6.9000001
21.1 -28.700001 6.9000001
20.9 -28.700001 7.0999999
21.1 -28.700001 7.0999999
20.9 -28.5 7.0999999
21.299999 -28.700001 7.0999999
21.5 -28.700001 7.0999999
20.9 -28.700001 7.3000002
21.1 -28.700001 7.3000002
21.1 -28.5 7.3000002
20.9 -28.700001 7.5
21.1 -28.700001 7.5
21.299999 -28.700001 7.3000002
21.5 -28.700001 7.3000002
21.299999 -28.5 7.3000002
21.5 -28.5 7.3000002
21.299999 -28.700001 7.5
21.5 -28.700001 7.5
21.299999 -28.5 7.5
21.5 -28.5 7.5
21.299999 -28.700001 7.6999998
21.5 -28.700001 7.6999998
21.700001 -28.700001 7.3000002
21.9 -28.700001 7.3000002
21.700001 -28.700001 7.5
21.9 -28.700001 7.5
21.700001 -28.5 7.5
21.9 -28.5 7.5
22.1 -28.700001 7.3000002
22.1 -28.700001 7.5
22.299999 -28.700001 7.5
22.1 -28.5 7.5
21.700001 -28.700001 7.6999998
21.9 -28.700001 7.6999998
21.9 -28.5 7.6999998
21.9 -28.700001 7.9000001
22.299999 -28.700001 7.6999998
22.1 -28.5 7.6999998
22.299999 -28.5 7.6999998
22.1 -28.700001 7.9000001
22.299999 -28.700001 7.9000001
22.1 -28.5 7.9000001
22.299999 -28.5 7.9000001
19.9 -28.700001 8.3000002
19.299999 -28.700001 8.5
19.5 -28.700001 8.5
19.299999 -28.5 8.5
19.5 -28.5 8.5
19.299999 -28.5 8.6999998
19.5 -28.5 8.6999998
19.700001 -28.700001 8.5
19.9 -28.700001 8.5
19.700001 -28.5 8.5
19.9 -28.5 8.5
19.700001 -28.5 8.6999998
19.9 -28.5 8.6999998
20.299999 -28.700001 8.3000002
20.1 -28.700001 8.5
20.299999 -28.700001 8.5
20.1 -28.5 8.5
20.299999 -28.5 8.5
20.1 -28.5 8.6999998
20.299999 -28.5 8.6999998
20.5 -28.700001 8.5
20.700001 -28.700001 8.5
20.5 -28.5 8.5
20.700001 -28.5 8.5
20.5 -28.5 8.6999998
20.700001 -28.5 8.6999998
19.299999 -28.5 8.8999996
19.5 -28.5 8.8999996
19.299999 -28.700001 9.1000004
19.5 -28.700001 9.1000004
19.299999 -28.5 9.1000004
19.5 -28.5 9.1000004
19.700001 -28.5 8.8999996
19.9 -28.5 8.8999996
19.700001 -28.700001 9.1000004
19.9 -28.700001 9.1000004
19.700001 -28.5 9.1000004
20.1 -28.5 8.8999996
20.299999 -28.5 8.8999996
20.1 -28.700001 9.1000004
20.299999 -28.700001 9.1000004
20.1 -28.5 9.1000004
20.299999 -28.5 9.1000004
20.5 -28.5 8.8999996
20.700001 -28.5 8.8999996
20.5 -28.700001 9.1000004
20.700001 -28.700001 9.1000004
20.5 -28.5 9.1000004
20.700001 -28.5 9.1000004
20.9 -28.700001 8.3000002
21.1 -28.700001 8.3000002
21.299999 -28.700001 8.3000002
21.5 -28.700001 8.3000002
20.9 -28.700001 8.5
21.1 -28.700001 8.5
20.9 -28.5 8.5
21.1 -28.5 8.5
20.9 -28.5 8.6999998
21.1 -28.5 8.6999998
21.299999 -28.700001 8.5
21.5 -28.700001 8.5
21.299999 -28.5 8.5
21.5 -28.5 8.5
21.299999 -28.5 8.6999998
21.5 -28.5 8.6999998
21.700001 -28.700001 8.3000002
21.9 -28.700001 8.3000002
22.299999 -28.700001 8.1000004
22.1 -28.700001 8.3000002
22.299999 -28.700001 8.3000002
21.700001 -28.700001 8.5
21.9 -28.700001 8.5
21.700001 -28.5 8.5
21.9 -28.5 8.5
21.700001 -28.5 8.6999998
21.9 -28.5 8.6999998
22.1 -28.700001 8.5
22.299999 -28.700001 8.5
22.1 -28.5 8.5
22.299999 -28.5 8.5
22.1 -28.5 8.6999998
22.299999 -28.5 8.6999998
22.299999 -28.299999 8.6999998
21.1 -28.700001 8.8999996
20.9 -28.5 8.8999996
21.1 -28.5 8.8999996
20.9 -28.700001 9.1000004
21.1 -28.700001 9.1000004
20.9 -28.5 9.1000004
21.1 -28.5 9.1000004
21.299999 -28.700001 8.8999996
21.299999 -28.5 8.8999996
21.5 -28.5 8.8999996
21.299999 -28.700001 9.1000004
21.5 -28.700001 9.1000004
21.299999 -28.5 9.1000004
21.5 -28.5 9.1000004
21.700001 -28.700001 8.8999996
21.700001 -28.5 8.8999996
21.9 -28.5 8.8999996
21.700001 -28.700001 9.1000004
21.9 -28.700001 9.1000004
21.700001 -28.5 9.1000004
22.299999 -28.700001 8.8999996
22.1 -28.5 8.8999996
22.299999 -28.5 8.8999996
22.1 -28.700001 9.1000004
22.299999 -28.700001 9.1000004
22.1 -28.5 9.1000004
22.299999 -28.5 9.1000004
23.9 -28.700001 6.5
23.9 -28.700001 6.6999998
23.9 -28.700001 6.9000001
23.9 -28.5 6.9000001
23.9 -28.700001 7.0999999
23.9 -28.5 7.0999999
22.5 -28.700001 7.5
22.5 -28.5 7.9000001
23.700001 -28.700001 7.3000002
23.9 -28.700001 7.3000002
23.9 -28.5 7.3000002
23.700001 -28.700001 7.5
23.9 -28.700001 7.5
23.9 -28.5 7.5
23.700001 -28.700001 7.6999998
23.9 -28.700001 7.6999998
23.9 -28.5 7.6999998
23.700001 -28.700001 7.9000001
23.9 -28.700001 7.9000001
23.9 -28.5 7.9000001
24.1 -28.700001 6.5
24.299999 -28.700001 6.5
24.1 -28.5 6.5
24.299999 -28.5 6.5
24.1 -28.700001 6.6999998
24.299999 -28.700001 6.6999998
24.1 -28.5 6.6999998
24.299999 -28.5 6.6999998
24.1 -28.5 6.9000001
24.299999 -28.5 6.9000001
24.299999 -28.700001 7.0999999
24.1 -28.5 7.0999999
24.299999 -28.5 7.0999999
24.1 -28.5 7.3000002
24.299999 -28.5 7.3000002
24.1 -28.5 7.5
24.299999 -28.5 7.5
24.1 -28.5 7.6999998
24.299999 -28.5 7.6999998
24.1 -28.5 7.9000001
24.299999 -28.5 7.9000001
24.1 -25.9 6.5
22.5 -28.700001 8.1000004
22.5 -28.700001 8.5
23.700001 -28.700001 8.1000004
23.9 -28.5 8.1000004
23.700001 -28.5 8.3000002
23.9 -28.5 8.3000002
23.5 -28.5 8.5
23.5 -28.5 8.6999998
23.700001 -28.5 8.5
23.9 -28.5 8.5
23.700001 -28.5 8.6999998
23.9 -28.299999 8.5
23.9 -28.1 8.5
23.700001 -28.299999 8.6999998
23.9 -28.299999 8.6999998
23.700001 -28.1 8.6999998
23.9 -28.1 8.6999998
23.9 -27.700001 8.3000002
23.9 -27.5 8.3000002
23.9 -27.9 8.5
23.9 -27.700001 8.5
23.700001 -27.9 8.6999998
23.9 -27.9 8.6999998
23.700001 -27.700001 8.6999998
23.9 -27.700001 8.6999998
23.9 -27.5 8.5
23.9 -27.299999 8.5
23.700001 -27.5 8.6999998
23.700001 -27.299999 8.6999998
23.9 -27.299999 8.6999998
22.5 -28.5 9.1000004
23.5 -28.5 8.8999996
23.700001 -28.5 8.8999996
23.700001 -28.700001 9.1000004
23.700001 -28.5 9.1000004
23.700001 -28.299999 8.8999996
23.9 -28.299999 8.8999996
23.700001 -28.1 8.8999996
23.9 -28.1 8.8999996
23.700001 -28.299999 9.1000004
23.9 -28.299999 9.1000004
23.700001 -28.1 9.1000004
23.9 -28.1 9.1000004
23.700001 -28.700001 9.3000002
23.700001 -28.5 9.3000002
23.9 -28.5 9.3000002
23.700001 -28.5 9.5
23.700001 -28.299999 9.3000002
23.9 -28.299999 9.3000002
23.700001 -28.1 9.3000002
23.700001 -28.299999 9.5
23.9 -28.299999 9.5
23.700001 -27.9 8.8999996
23.9 -27.9 8.8999996
23.9 -27.700001 8.8999996
23.9 -27.9 9.1000004
23.9 -27.700001 9.1000004
23.700001 -27.5 8.8999996
23.9 -27.5 8.8999996
23.700001 -27.299999 8.8999996
23.9 -27.299999 8.8999996
23.9 -27.5 9.1000004
23.9 -27.299999 9.1000004
23.700001 -27.9 9.3000002
23.9 -27.9 9.3000002
23.700001 -27.700001 9.3000002
23.9 -27.700001 9.3000002
23.9 -27.9 9.5
23.700001 -27.700001 9.5
23.9 -27.700001 9.5
23.9 -27.5 9.3000002
23.9 -27.299999 9.3000002
23.700001 -27.5 9.5
23.9 -27.5 9.5
23.700001 -27.299999 9.5
23.9 -27.299999 9.5
24.1 -28.5 8.1000004
24.299999 -28.5 8.1000004
24.1 -28.5 8.3000002
24.299999 -28.5 8.3000002
24.1 -28.299999 8.1000004
24.1 -28.5 8.5
24.299999 -28.5 8.5
24.1 -28.299999 8.5
24.1 -27.299999 8.3000002
24.1 -28.5 9.5
24.1 -28.299999 9.5
23.9 -26.700001 8.3000002
23.9 -27.1 8.5
23.9 -26.9 8.5
23.700001 -27.1 8.6999998
23.700001 -26.9 8.6999998
23.9 -26.700001 8.5
23.9 -26.5 8.5
23.700001 -26.700001 8.6999998
23.9 -26.700001 8.6999998
23.700001 -26.5 8.6999998
23.9 -26.5 8.6999998
23.700001 -26.299999 8.5
23.9 -26.299999 8.5
23.9 -26.1 8.5
23.700001 -26.299999 8.6999998
23.9 -26.299999 8.6999998
23.700001 -26.1 8.6999998
23.9 -26.1 8.6999998
23.9 -25.9 8.5
23.700001 -27.1 8.8999996
23.9 -27.1 8.8999996
23.700001 -26.9 8.8999996
23.9 -26.9 8.8999996
23.9 -27.1 9.1000004
23.9 -26.9 9.1000004
23.700001 -26.700001 8.8999996
23.9 -26.700001 8.8999996
23.700001 -26.5 8.8999996
23.9 -26.5 8.8999996
23.9 -26.700001 9.1000004
23.700001 -26.299999 8.8999996
23.9 -26.299999 8.8999996
24.1 -26.9 8.3000002
24.1 -26.700001 8.3000002
24.1 -26.5 8.3000002
24.1 -26.700001 8.5
24.1 -26.299999 8.5
24.1 -26.1 8.5
19.299999 -28.5 10.7
19.700001 -28.5 10.7
19.9 -28.5 10.7
19.299999 -28.299999 10.5
19.5 -28.299999 10.5
19.299999 -28.299999 10.7
19.5 -28.299999 10.7
19.700001 -28.299999 10.7
19.9 -28.299999 10.7
19.299999 -28.5 10.9
19.5 -28.5 10.9
19.5 -28.5 11.1
19.700001 -28.5 10.9
19.700001 -28.5 11.1
19.9 -28.5 11.1
19.299999 -28.299999 10.9
19.5 -28.299999 10.9
19.700001 -28.299999 10.9
19.9 -28.299999 10.9
19.9 -28.299999 11.1
20.1 -28.5 10.7
20.1 -28.5 10.9
20.299999 -28.5 10.9
20.5 -28.5 11.1
20.700001 -28.5 11.1
20.1 -28.299999 10.9
20.299999 -28.299999 10.9
20.1 -28.299999 11.1
20.299999 -28.299999 11.1
20.5 -28.299999 11.1
20.9 -28.5 11.1
19.9 -28.5 11.3
19.9 -28.299999 11.3
20.1 -28.5 11.3
20.299999 -28.5 11.3
20.299999 -28.5 11.5
20.5 -28.5 11.3
20.5 -28.5 11.5
20.299999 -28.299999 11.3
20.5 -28.299999 11.3
20.700001 -28.299999 11.3
20.5 -28.299999 11.5
20.700001 -28.299999 11.5
20.700001 -28.5 11.7
19.299999 -28.299999 12.7
19.5 -28.299999 12.7
19.700001 -28.299999 12.7
19.9 -28.299999 12.7
20.1 -28.299999 12.7
20.299999 -28.299999 12.7
20.5 -28.299999 12.7
20.700001 -28.299999 12.7
20.9 -28.5 11.3
21.1 -28.5 11.3
21.299999 -28.5 11.5
21.5 -28.5 11.5
20.9 -28.299999 11.3
21.1 -28.299999 11.3
20.9 -28.299999 11.5
21.1 -28.299999 11.5
21.299999 -28.299999 11.5
21.5 -28.299999 11.5
20.9 -28.5 11.7
20.9 -28.299999 11.7
21.1 -28.299999 11.7
21.299999 -28.299999 11.7
21.5 -28.299999 11.7
21.700001 -28.299999 11.7
20.9 -28.299999 12.7
21.1 -28.299999 12.7
21.299999 -28.299999 12.7
21.5 -28.299999 12.7
21.700001 -28.299999 12.7
21.9 -28.299999 12.7
22.1 -28.299999 12.7
22.299999 -28.1 12.7
23.700001 -28.5 9.6999998
23.700001 -28.5 9.8999996
23.700001 -28.299999 9.6999998
23.9 -28.299999 9.6999998
23.700001 -28.299999 9.8999996
23.9 -28.299999 9.8999996
23.5 -28.5 10.3
23.700001 -28.700001 10.1
23.700001 -28.5 10.1
23.700001 -28.5 10.3
23.700001 -28.299999 10.1
23.9 -28.299999 10.1
23.700001 -28.299999 10.3
23.9 -28.299999 10.3
23.700001 -27.5 9.6999998
23.700001 -27.299999 9.6999998
23.700001 -28.5 10.5
24.1 -28.299999 9.6999998
24.1 -28.299999 9.8999996
24.1 -28.299999 10.1
24.1 -28.299999 10.3
23.700001 -26.5 9.6999998
23.9 -26.5 9.6999998
23.700001 -26.700001 9.8999996
23.700001 -26.5 9.8999996
23.9 -26.5 9.8999996
23.700001 -26.700001 10.1
23.700001 -26.5 10.1
23.700001 -26.5 10.3
23.700001 -26.299999 9.8999996
23.9 -26.299999 9.8999996
23.9 -26.1 9.8999996
23.9 -25.9 9.8999996
23.700001 -26.299999 10.1
23.700001 -26.1 10.1
23.9 -26.1 10.1
23.700001 -26.299999 10.3
23.700001 -26.1 10.3
23.9 -25.9 10.1
23.5 -28.299999 12.1
23.5 -28.299999 12.3
23.700001 -28.1 12.1
23.299999 -28.299999 12.5
23.5 -28.299999 12.5
23.299999 -28.299999 12.7
23.5 -28.299999 12.7
23.5 -28.1 12.7
23.700001 -28.1 12.7
23.5 -27.700001 12.7
23.700001 -27.9 12.7
23.700001 -27.700001 12.7
23.5 -27.5 12.7
23.5 -27.299999 12.7
23.700001 -27.5 12.7
23.700001 -27.299999 12.7
23.5 -27.1 12.7
23.5 -26.9 12.7
23.700001 -27.1 12.7
23.700001 -26.9 12.7
23.5 -26.700001 12.7
23.700001 -26.700001 12.7
23.700001 -26.5 12.7
23.5 -26.299999 12.7
23.5 -26.1 12.7
23.700001 -26.299999 12.7
23.700001 -26.1 12.7
23.5 -25.9 12.7
23.5 -25.700001 12.7
23.700001 -25.9 12.7
23.700001 -25.700001 12.7
15.9 -28.5 12.9
15.9 -28.299999 12.9
15.9 -28.299999 13.1
15.9 -28.1 13.1
15.9 -28.299999 13.3
15.9 -28.299999 13.5
15.9 -28.299999 13.7
15.9 -28.299999 13.9
15.9 -28.299999 14.1
15.9 -28.299999 14.3
15.9 -26.5 13.1
15.9 -26.299999 12.9
15.9 -26.1 13.1
15.9 -25.9 13.1
15.9 -25.700001 13.1
16.1 -28.5 12.9
16.1 -28.5 13.1
16.1 -28.299999 12.9
16.1 -28.1 12.9
16.1 -28.299999 13.1
16.1 -28.1 13.1
16.700001 -28.1 12.9
16.700001 -28.1 13.1
16.1 -28.299999 13.3
16.1 -28.1 13.3
16.299999 -28.1 13.3
16.1 -28.299999 13.5
16.1 -28.1 13.5
16.299999 -28.1 13.5
16.5 -28.299999 13.5
16.5 -28.1 13.5
16.9 -28.1 12.9
17.1 -28.1 12.9
16.9 -28.1 13.1
17.1 -28.1 13.1
17.299999 -28.1 12.9
17.5 -28.1 12.9
17.299999 -28.299999 13.1
17.5 -28.299999 13.1
17.299999 -28.1 13.1
17.5 -28.1 13.1
16.9 -28.299999 13.3
17.1 -28.299999 13.3
17.1 -28.299999 13.5
17.299999 -28.299999 13.3
17.5 -28.299999 13.3
17.5 -28.1 13.3
17.299999 -28.299999 13.5
16.1 -27.9 12.9
16.1 -27.700001 12.9
16.1 -27.9 13.1
16.1 -27.5 12.9
16.1 -27.299999 12.9
16.1 -27.5 13.1
16.1 -27.299999 13.1
16.1 -28.5 13.7
16.1 -28.299999 13.7
16.1 -28.1 13.7
16.299999 -28.1 13.7
16.1 -28.299999 13.9
16.1 -28.1 13.9
16.299999 -28.1 13.9
16.5 -28.299999 13.7
16.5 -28.1 13.7
16.5 -28.1 13.9
16.1 -28.299999 14.1
16.1 -28.1 14.1
16.299999 -28.1 14.1
16.1 -28.299999 14.3
16.1 -28.1 14.3
16.299999 -28.1 14.3
16.5 -28.1 14.1
16.5 -28.1 14.3
17.299999 -28.299999 13.7
17.5 -28.299999 13.7
17.5 -28.1 13.9
16.299999 -27.9 13.9
16.299999 -27.9 14.1
16.299999 -27.9 14.3
16.5 -27.9 14.3
17.700001 -28.1 12.9
17.9 -28.1 12.9
17.700001 -28.299999 13.1
17.9 -28.299999 13.1
17.700001 -28.1 13.1
17.9 -28.1 13.1
18.299999 -28.299999 12.9
18.1 -28.1 12.9
18.299999 -28.1 12.9
18.299999 -28.299999 13.1
18.1 -28.1 13.1
18.299999 -28.1 13.1
17.700001 -28.299999 13.3
17.9 -28.299999 13.3
17.700001 -28.1 13.3
18.1 -28.299999 13.3
18.299999 -28.299999 13.3
18.299999 -28.1 13.3
18.700001 -28.299999 12.9
18.5 -28.1 12.9
18.700001 -28.1 12.9
18.700001 -28.299999 13.1
18.5 -28.1 13.1
18.700001 -28.1 13.1
18.9 -28.299999 12.9
19.1 -28.299999 12.9
18.9 -28.1 12.9
19.1 -28.1 12.9
19.1 -28.299999 13.1
18.9 -28.1 13.1
19.1 -28.1 13.1
18.5 -28.299999 13.3
18.700001 -28.299999 13.3
18.9 -28.299999 13.3
19.1 -28.299999 13.3
17.700001 -28.299999 13.7
17.9 -28.299999 13.7
17.700001 -28.299999 13.9
17.9 -28.299999 13.9
17.700001 -28.1 13.9
17.9 -28.1 13.9
18.1 -28.299999 13.9
17.9 -28.1 14.1
18.1 -28.299999 14.1
18.299999 -28.299999 14.1
18.1 -28.1 14.1
18.299999 -28.1 14.1
18.1 -28.1 14.3
18.299999 -28.1 14.3
18.5 -28.299999 14.1
18.5 -28.299999 14.3
18.700001 -28.299999 14.3
18.5 -28.1 14.3
18.700001 -28.1 14.3
18.9 -28.299999 14.3
16.1 -27.1 12.9
16.299999 -27.1 12.9
16.1 -26.9 12.9
16.1 -27.1 13.1
16.1 -26.9 13.1
16.1 -26.700001 12.9
16.1 -26.5 12.9
16.1 -26.700001 13.1
16.1 -26.5 13.1
16.1 -26.299999 12.9
16.1 -26.1 12.9
16.1 -26.299999 13.1
16.1 -26.1 13.1
16.1 -25.9 12.9
16.1 -25.700001 12.9
16.1 -25.9 13.1
16.1 -25.700001 13.1
16.1 -28.299999 14.5
16.1 -28.1 14.5
16.299999 -28.1 14.5
16.1 -28.299999 14.7
16.1 -28.1 14.7
16.299999 -28.1 14.7
16.5 -28.1 14.5
16.5 -28.1 14.7
16.1 -28.299999 14.9
16.1 -28.1 14.9
16.299999 -28.1 14.9
16.1 -28.299999 15.1
16.1 -28.1 15.1
16.299999 -28.1 15.1
16.5 -28.1 14.9
16.5 -28.1 15.1
16.299999 -27.9 14.5
16.299999 -27.9 14.7
16.5 -27.9 14.7
16.299999 -27.9 14.9
16.299999 -27.9 15.1
16.5 -27.9 14.9
16.5 -27.9 15.1
16.1 -28.1 15.3
16.299999 -28.1 15.3
16.1 -28.299999 15.5
16.299999 -28.299999 15.5
16.1 -28.1 15.5
16.299999 -28.1 15.5
16.5 -28.1 15.3
16.1 -28.1 15.7
16.299999 -28.1 15.7
16.1 -28.1 15.9
16.299999 -28.1 15.9
16.299999 -27.9 15.3
16.299999 -27.9 15.5
16.5 -27.9 15.3
16.5 -27.9 15.5
16.299999 -27.9 15.7
16.299999 -27.9 15.9
16.5 -27.9 15.7
16.5 -27.9 15.9
18.299999 -28.1 14.5
18.5 -28.1 14.5
18.700001 -28.1 14.5
18.700001 -28.1 14.7
18.9 -28.299999 14.5
19.1 -28.299999 14.5
18.9 -28.1 14.5
19.1 -28.1 14.5
18.9 -28.1 14.7
19.1 -28.1 14.7
18.700001 -28.1 14.9
18.9 -28.1 14.9
19.1 -28.1 14.9
19.1 -28.1 15.1
16.299999 -26.299999 15.9
16.299999 -26.1 15.9
16.5 -26.1 15.9
16.299999 -25.9 15.7
16.299999 -25.700001 15.7
16.299999 -25.9 15.9
16.299999 -25.700001 15.9
16.5 -25.700001 15.9
16.299999 -28.299999 16.1
16.299999 -28.1 16.1
16.299999 -28.1 16.299999
16.299999 -28.1 16.5
16.299999 -28.1 16.700001
16.299999 -27.9 16.1
16.299999 -27.9 16.299999
16.5 -27.9 16.1
16.700001 -27.9 16.1
16.5 -27.9 16.299999
16.700001 -27.9 16.299999
16.299999 -27.9 16.5
16.299999 -27.9 16.700001
16.5 -27.9 16.5
16.700001 -27.9 16.5
16.5 -27.9 16.700001
16.700001 -27.9 16.700001
16.700001 -27.700001 16.700001
16.299999 -27.5 16.700001
16.299999 -27.299999 16.700001
16.5 -27.5 16.5
16.5 -27.299999 16.5
16.5 -27.5 16.700001
16.5 -27.299999 16.700001
16.299999 -28.1 16.9
16.299999 -28.1 17.299999
16.299999 -28.1 17.5
17.1 -28.1 16.9
17.299999 -28.1 16.9
17.5 -28.1 16.9
16.299999 -27.9 16.9
16.299999 -27.700001 16.9
16.299999 -27.9 17.1
16.299999 -27.700001 17.1
16.5 -27.9 16.9
16.5 -27.700001 16.9
16.5 -27.700001 17.1
16.299999 -27.5 16.9
16.299999 -27.299999 17.1
16.5 -27.5 16.9
16.5 -27.299999 16.9
16.5 -27.5 17.1
16.5 -27.299999 17.1
16.299999 -27.9 17.299999
16.299999 -27.9 17.5
16.5 -27.700001 17.299999
16.5 -27.9 17.5
16.299999 -27.299999 17.299999
16.5 -27.299999 17.299999
17.299999 -27.9 16.9
17.5 -27.9 16.9
16.9 -27.9 17.5
17.1 -27.9 17.5
17.299999 -27.9 17.5
17.700001 -28.1 16.9
17.9 -28.1 16.9
18.1 -28.1 16.9
18.299999 -28.1 16.9
18.5 -28.1 16.9
18.700001 -28.1 16.9
18.700001 -28.1 17.1
18.9 -28.1 16.9
19.1 -28.1 16.9
17.700001 -27.9 16.9
17.700001 -27.9 17.1
17.9 -27.9 17.1
18.1 -27.9 16.9
18.1 -27.9 17.1
18.299999 -27.9 17.1
18.5 -27.9 17.1
18.700001 -27.9 17.1
18.9 -27.9 16.9
19.1 -27.9 16.9
18.9 -27.9 17.1
19.1 -27.9 17.1
18.5 -27.9 17.299999
18.700001 -27.9 17.299999
18.700001 -27.700001 17.299999
18.9 -27.9 17.299999
19.1 -27.9 17.299999
18.9 -27.700001 17.299999
19.1 -27.700001 17.299999
16.5 -26.9 16.1
16.5 -27.1 16.299999
16.299999 -26.700001 16.299999
16.299999 -26.5 16.299999
16.5 -26.5 16.1
16.299999 -27.1 16.5
16.299999 -26.9 16.5
16.299999 -27.1 16.700001
16.5 -27.1 16.5
16.5 -26.9 16.700001
16.299999 -26.700001 16.5
16.299999 -26.5 16.5
16.5 -26.5 16.5
16.299999 -26.299999 16.1
16.299999 -26.1 16.1
16.299999 -26.299999 16.299999
16.5 -26.1 16.299999
16.299999 -25.9 16.1
16.5 -25.9 16.1
16.5 -25.700001 16.1
16.299999 -27.1 17.1
16.299999 -26.9 17.1
16.5 -27.1 16.9
16.5 -26.9 16.9
16.5 -26.9 17.1
16.299999 -26.700001 17.1
16.299999 -26.5 17.1
16.5 -26.5 16.9
16.5 -26.700001 17.1
16.5 -26.5 17.1
16.299999 -27.1 17.299999
16.299999 -26.700001 17.299999
16.299999 -26.5 17.299999
16.299999 -26.5 17.5
16.5 -26.700001 17.299999
16.5 -26.5 17.299999
16.299999 -26.299999 17.1
16.5 -26.299999 16.9
16.5 -26.1 16.9
16.5 -26.299999 17.1
16.5 -26.1 17.1
16.299999 -25.9 17.1
16.299999 -25.700001 17.1
16.5 -25.9 16.9
16.5 -25.700001 16.9
16.5 -25.9 17.1
16.5 -25.700001 17.1
16.700001 -25.700001 17.1
16.299999 -26.299999 17.299999
16.299999 -26.1 17.299999
16.299999 -25.9 17.299999
16.299999 -25.700001 17.299999
16.299999 -25.9 17.5
16.5 -25.9 17.299999
16.299999 -28.1 17.700001
16.5 -28.1 17.9
16.5 -28.1 18.1
16.5 -28.1 18.299999
16.299999 -27.9 17.700001
16.299999 -27.9 17.9
16.5 -27.9 17.700001
16.5 -27.700001 17.700001
16.5 -27.9 17.9
16.700001 -27.9 17.9
16.5 -27.700001 17.9
16.700001 -27.700001 17.9
16.299999 -27.9 18.1
16.299999 -27.9 18.299999
16.5 -27.9 18.1
16.5 -27.700001 18.1
16.700001 -27.700001 18.1
16.5 -27.9 18.299999
16.5 -27.700001 18.299999
16.700001 -27.700001 18.299999
17.1 -27.9 17.700001
17.299999 -27.9 17.700001
17.299999 -27.9 17.9
17.5 -27.9 17.9
17.5 -27.9 18.1
17.299999 -27.700001 18.1
17.5 -27.700001 18.299999
16.299999 -27.9 18.5
16.299999 -27.9 18.700001
16.5 -27.9 18.5
16.5 -27.700001 18.5
16.700001 -27.700001 18.5
16.5 -27.9 18.700001
16.5 -27.700001 18.700001
16.700001 -27.700001 18.700001
16.299999 -27.9 18.9
16.5 -27.9 18.9
16.5 -27.700001 18.9
16.700001 -27.700001 18.9
16.5 -27.9 19.1
16.5 -27.700001 19.1
16.700001 -27.700001 19.1
16.9 -27.700001 19.1
17.700001 -27.9 17.9
17.700001 -27.9 18.1
17.9 -27.9 18.1
17.700001 -27.9 18.299999
17.9 -27.9 18.299999
17.700001 -27.700001 18.299999
18.1 -27.9 18.1
18.1 -27.9 18.299999
18.299999 -27.9 18.299999
18.1 -27.700001 18.299999
17.9 -27.9 18.5
18.1 -27.9 18.5
18.299999 -27.9 18.5
18.1 -27.700001 18.5
18.299999 -27.700001 18.5
18.1 -27.9 18.700001
18.299999 -27.9 18.700001
18.299999 -27.9 18.9
18.5 -27.9 18.5
18.700001 -27.9 18.5
18.5 -27.700001 18.5
18.5 -27.9 18.700001
18.700001 -27.9 18.700001
18.5 -27.700001 18.700001
18.700001 -27.700001 18.700001
18.9 -27.9 18.700001
19.1 -27.9 18.700001
18.9 -27.700001 18.700001
18.700001 -27.9 18.9
18.9 -27.9 18.9
19.1 -27.9 18.9
18.9 -27.700001 18.9
19.1 -27.700001 18.9
18.9 -27.9 19.1
19.1 -27.9 19.1
19.5 -28.299999 12.9
19.299999 -28.1 12.9
19.5 -28.1 12.9
19.5 -28.299999 13.1
19.299999 -28.1 13.1
19.5 -28.1 13.1
19.9 -28.299999 12.9
19.700001 -28.1 12.9
19.9 -28.1 12.9
19.700001 -28.1 13.1
19.9 -28.1 13.1
19.299999 -28.299999 13.3
19.5 -28.299999 13.3
19.700001 -28.299999 13.3
19.9 -28.299999 13.3
19.9 -28.1 13.3
20.1 -28.299999 12.9
20.299999 -28.299999 12.9
20.1 -28.1 12.9
20.299999 -28.1 12.9
20.1 -28.299999 13.1
20.299999 -28.299999 13.1
20.1 -28.1 13.1
20.299999 -28.1 13.1
20.5 -28.299999 12.9
20.700001 -28.299999 12.9
20.5 -28.1 12.9
20.700001 -28.1 12.9
20.700001 -28.299999 13.1
20.5 -28.1 13.1
20.700001 -28.1 13.1
20.1 -28.299999 13.3
20.299999 -28.299999 13.3
20.299999 -28.1 13.3
20.5 -28.299999 13.3
20.700001 -28.299999 13.3
20.5 -28.1 13.3
20.9 -28.299999 12.9
21.1 -28.299999 12.9
20.9 -28.1 12.9
21.1 -28.1 12.9
20.9 -28.1 13.1
21.1 -28.1 13.1
21.299999 -28.299999 12.9
21.299999 -28.1 12.9
21.5 -28.1 12.9
21.5 -28.299999 13.1
21.299999 -28.1 13.1
21.5 -28.1 13.1
20.9 -28.299999 13.3
21.1 -28.299999 13.3
21.299999 -28.299999 13.3
21.5 -28.299999 13.3
21.299999 -28.1 13.3
21.5 -28.1 13.3
21.700001 -28.299999 12.9
21.9 -28.299999 12.9
21.700001 -28.1 12.9
21.9 -28.1 12.9
21.700001 -28.299999 13.1
21.700001 -28.1 13.1
21.9 -28.1 13.1
22.1 -28.1 12.9
21.700001 -28.299999 13.3
21.9 -28.299999 13.3
21.700001 -28.1 13.3
22.1 -28.299999 13.3
22.1 -28.1 13.3
19.5 -28.299999 14.7
19.299999 -28.1 14.7
19.5 -28.1 14.7
19.299999 -28.1 14.9
19.5 -28.1 14.9
19.299999 -28.1 15.1
19.5 -28.1 15.1
19.9 -28.299999 14.9
19.700001 -28.1 14.9
19.9 -28.1 14.9
19.700001 -28.1 15.1
19.9 -28.1 15.1
20.1 -28.1 14.9
20.1 -28.1 15.1
19.700001 -27.9 15.1
19.5 -28.1 15.3
19.700001 -28.1 15.3
19.9 -28.1 15.3
19.700001 -28.1 15.5
19.9 -28.1 15.5
20.1 -28.1 15.3
20.299999 -28.1 15.3
20.1 -28.1 15.5
20.299999 -28.1 15.5
20.5 -28.1 15.3
20.700001 -28.1 15.3
20.5 -28.1 15.5
20.700001 -28.1 15.5
20.299999 -28.1 15.7
20.5 -28.1 15.7
20.700001 -28.1 15.7
20.5 -28.1 15.9
20.700001 -28.1 15.9
19.9 -27.9 15.3
20.1 -27.9 15.3
20.299999 -27.9 15.3
20.299999 -27.9 15.5
20.5 -27.9 15.5
20.700001 -27.9 15.5
20.5 -27.9 15.7
20.700001 -27.9 15.7
20.9 -28.1 15.5
21.1 -28.1 15.5
20.9 -28.1 15.7
21.1 -28.1 15.7
20.9 -28.1 15.9
21.299999 -28.1 15.7
21.5 -28.1 15.7
21.299999 -28.1 15.9
21.5 -28.1 15.9
21.700001 -28.1 15.9
20.9 -27.9 15.7
21.1 -27.9 15.7
20.9 -27.9 15.9
21.1 -27.9 15.9
21.299999 -27.9 15.9
23.299999 -28.299999 12.9
23.299999 -28.1 12.9
23.5 -28.1 12.9
23.299999 -28.1 13.1
23.5 -28.1 13.1
23.5 -27.9 12.9
23.5 -27.700001 12.9
23.5 -27.9 13.1
23.5 -27.700001 13.1
23.5 -27.5 12.9
23.5 -27.299999 12.9
23.5 -27.5 13.1
23.5 -27.299999 13.1
23.5 -27.9 13.3
23.5 -27.700001 13.3
23.5 -27.9 13.5
23.5 -27.700001 13.5
23.700001 -27.700001 13.3
23.5 -27.5 13.5
23.5 -27.299999 13.5
23.700001 -27.5 13.3
23.700001 -27.299999 13.3
23.700001 -27.5 13.5
23.700001 -27.299999 13.5
23.5 -27.700001 13.7
23.5 -27.5 13.7
23.5 -27.299999 13.7
23.299999 -27.299999 13.9
23.5 -27.299999 13.9
23.5 -27.1 12.9
23.5 -26.9 12.9
23.5 -27.1 13.1
23.5 -26.9 13.1
23.5 -26.700001 12.9
23.5 -26.5 12.9
23.5 -26.700001 13.1
23.5 -26.5 13.1
23.5 -27.1 13.3
23.5 -26.9 13.3
23.700001 -27.1 13.3
23.700001 -26.9 13.3
23.700001 -27.1 13.5
23.5 -26.700001 13.3
23.5 -26.5 13.3
23.700001 -26.5 13.3
23.5 -26.299999 12.9
23.5 -26.1 12.9
23.5 -26.299999 13.1
23.5 -26.1 13.1
23.5 -25.9 12.9
23.5 -25.700001 12.9
23.5 -25.9 13.1
23.5 -25.700001 13.1
23.5 -26.299999 13.3
23.5 -26.1 13.3
23.700001 -26.299999 13.3
23.700001 -26.1 13.3
23.5 -25.9 13.3
23.5 -25.700001 13.3
23.700001 -25.9 13.3
23.700001 -25.700001 13.3
23.5 -27.1 13.7
23.5 -26.9 13.7
23.5 -27.1 13.9
23.5 -26.9 13.9
23.700001 -26.9 13.7
23.5 -26.700001 13.9
23.5 -26.5 13.9
23.700001 -26.700001 13.7
23.700001 -26.700001 13.9
23.700001 -26.5 13.9
23.5 -27.1 14.1
23.299999 -26.9 14.1
23.5 -26.9 14.1
23.5 -26.700001 14.1
23.5 -26.5 14.1
23.299999 -26.5 14.3
23.5 -26.5 14.3
23.5 -26.299999 14.1
23.5 -26.1 14.1
23.299999 -26.299999 14.3
23.5 -26.299999 14.3
23.299999 -26.1 14.3
23.5 -26.1 14.3
23.700001 -26.299999 14.1
23.700001 -26.1 14.1
23.5 -25.9 14.3
23.5 -25.700001 14.3
23.700001 -25.9 14.3
23.299999 -26.299999 14.5
23.299999 -26.1 14.5
23.5 -26.1 14.5
23.299999 -25.9 14.5
23.5 -25.9 14.5
23.5 -25.700001 14.5
23.299999 -25.9 14.7
23.299999 -25.700001 14.7
19.299999 -28.1 16.9
19.5 -28.1 16.9
19.5 -28.1 17.1
19.700001 -28.1 16.9
19.9 -28.1 16.9
20.1 -28.1 16.9
20.5 -28.1 17.5
19.5 -27.9 16.9
19.299999 -27.9 17.1
19.5 -27.9 17.1
19.700001 -27.9 16.9
19.9 -27.9 16.9
19.700001 -27.9 17.1
19.9 -27.9 17.1
19.299999 -27.9 17.299999
19.5 -27.9 17.299999
19.299999 -27.9 17.5
19.5 -27.9 17.5
19.700001 -27.9 17.299999
19.9 -27.9 17.299999
19.700001 -27.9 17.5
19.9 -27.9 17.5
19.700001 -27.700001 17.5
19.9 -27.700001 17.5
20.299999 -27.9 16.9
20.1 -27.9 17.1
20.299999 -27.9 17.1
20.5 -27.9 17.1
20.700001 -27.9 17.1
20.1 -27.9 17.299999
20.299999 -27.9 17.299999
20.1 -27.9 17.5
20.299999 -27.9 17.5
20.1 -27.700001 17.5
20.5 -27.9 17.299999
20.700001 -27.9 17.299999
20.5 -27.9 17.5
20.5 -27.700001 17.5
21.1 -28.1 16.1
21.299999 -28.1 16.1
21.299999 -28.1 16.299999
21.299999 -27.9 16.1
21.5 -27.9 16.1
21.700001 -27.9 16.1
20.1 -27.9 17.700001
19.299999 -27.9 18.9
23.1 -25.700001 17.299999
23.1 -25.700001 17.5
23.299999 -25.700001 17.1
15.9 -28.1 20.299999
14.1 -28.1 21.5
14.3 -28.1 21.5
13.9 -28.1 21.9
14.1 -28.1 21.700001
14.3 -28.1 21.700001
14.1 -28.1 21.9
14.3 -27.9 21.700001
14.3 -27.9 21.9
14.5 -27.9 21.700001
16.299999 -27.9 19.299999
16.299999 -27.9 19.5
16.5 -27.9 19.299999
16.5 -27.700001 19.299999
16.700001 -27.700001 19.299999
16.5 -27.9 19.5
16.5 -27.700001 19.5
16.700001 -27.700001 19.5
16.700001 -27.5 19.5
16.5 -27.9 19.700001
16.5 -27.700001 19.700001
16.700001 -27.700001 19.700001
16.5 -27.9 19.9
16.5 -27.700001 19.9
16.700001 -27.700001 19.9
16.700001 -27.5 19.700001
16.700001 -27.5 19.9
16.9 -27.700001 19.299999
16.9 -27.700001 19.5
16.9 -27.5 19.5
16.9 -27.700001 19.700001
16.9 -27.5 19.700001
16.1 -28.1 20.299999
16.5 -28.1 20.299999
16.700001 -28.1 20.299999
16.299999 -28.1 20.5
16.700001 -28.1 20.5
16.700001 -27.9 20.1
16.700001 -27.700001 20.1
16.5 -27.700001 20.299999
16.700001 -27.700001 20.299999
16.700001 -27.9 20.5
16.700001 -27.700001 20.5
16.9 -27.700001 20.299999
10.9 -25.5 0.1
10.5 -25.1 0.1
10.5 -24.9 0.1
10.3 -24.700001 0.1
10.3 -24.5 0.1
10.3 -24.299999 0.1
10.5 -24.700001 0.1
10.9 -24.5 0.1
10.7 -24.299999 0.1
10.9 -24.299999 0.1
10.9 -24.1 0.1
11.7 -25.299999 0.1
11.9 -25.299999 0.1
11.3 -24.9 0.1
11.9 -25.1 0.1
12.1 -25.5 0.1
12.7 -25.5 0.1
12.3 -25.1 0.1
12.7 -24.9 0.1
11.3 -24.700001 0.1
11.3 -24.5 0.1
11.3 -24.299999 0.1
11.5 -24.1 0.1
12.3 -24.5 0.1
10.1 -23.9 0.1
10.3 -23.700001 0.1
10.1 -23.5 0.1
10.3 -23.5 0.1
10.3 -23.299999 0.1
10.7 -23.9 0.1
10.9 -23.700001 0.1
10.7 -23.5 0.1
10.7 -23.299999 0.1
10.9 -23.5 0.1
10.3 -23.1 0.1
10.3 -22.9 0.1
10.1 -22.700001 0.1
10.7 -23.1 0.1
10.7 -22.9 0.1
10.9 -22.700001 0.1
11.3 -23.9 0.1
11.3 -23.700001 0.1
10.3 -21.9 0.1
10.3 -21.700001 0.1
10.1 -21.5 0.1
10.3 -21.1 0.1
10.1 -20.9 0.1
11.7 -21.1 0.1
12.3 -21.1 0.1
10.1 -20.700001 0.1
10.3 -20.299999 0.1
10.1 -20.1 0.1
10.1 -19.5 0.1
10.3 -19.5 0.1
10.7 -19.299999 0.1
11.1 -19.5 0.1
11.5 -20.700001 0.1
11.9 -20.5 0.1
11.9 -20.299999 0.1
11.7 -20.1 0.1
12.5 -20.5 0.1
12.3 -20.299999 0.1
12.1 -20.1 0.1
12.3 -20.1 0.1
12.7 -20.299999 0.1
12.5 -20.1 0.1
12.7 -20.1 0.1
11.3 -19.700001 0.1
11.5 -19.700001 0.1
11.9 -19.9 0.1
11.7 -19.700001 0.1
11.9 -19.700001 0.1
11.5 -19.5 0.1
11.7 -19.5 0.1
11.7 -19.299999 0.1
12.1 -19.9 0.1
12.3 -19.9 0.1
12.3 -19.700001 0.1
12.5 -19.9 0.1
12.7 -19.9 0.1
12.7 -19.700001 0.1
12.1 -19.5 0.1
12.5 -19.5 0.1
12.7 -19.5 0.1
10.1 -18.700001 0.1
10.3 -18.700001 0.1
10.7 -18.9 0.1
10.9 -19.1 0.1
11.1 -19.1 0.1
10.9 -18.9 0.1
11.1 -18.9 0.1
10.5 -18.700001 0.1
10.7 -18.700001 0.1
10.5 -18.5 0.1
10.7 -18.5 0.1
10.9 -18.700001 0.1
11.1 -18.700001 0.1
11.1 -18.5 0.1
10.1 -18.299999 0.1
10.3 -18.299999 0.1
10.1 -18.1 0.1
10.1 -17.9 0.1
10.1 -17.700001 0.1
10.3 -17.700001 0.1
10.5 -18.299999 0.1
10.7 -18.299999 0.1
10.5 -18.1 0.1
10.7 -18.1 0.1
10.9 -18.299999 0.1
11.1 -18.299999 0.1
10.9 -18.1 0.1
11.1 -18.1 0.1
10.5 -17.700001 0.1
10.7 -17.700001 0.1
10.9 -17.9 0.1
11.1 -17.9 0.1
10.9 -17.700001 0.1
11.1 -17.700001 0.1
11.3 -19.1 0.1
11.5 -19.1 0.1
11.5 -18.9 0.1
11.7 -19.1 0.1
11.7 -18.9 0.1
11.3 -18.700001 0.1
11.5 -18.700001 0.1
11.9 -18.700001 0.1
11.9 -18.5 0.1
12.1 -19.1 0.1
12.3 -19.1 0.1
12.1 -18.9 0.1
12.7 -19.1 0.1
12.5 -18.9 0.1
12.1 -18.700001 0.1
12.3 -18.5 0.1
12.5 -18.700001 0.1
12.7 -18.5 0.1
11.3 -18.299999 0.1
11.5 -18.299999 0.1
11.7 -18.299999 0.1
11.9 -18.299999 0.1
11.7 -18.1 0.1
11.9 -18.1 0.1
11.5 -17.9 0.1
11.3 -17.700001 0.1
11.5 -17.700001 0.1
11.7 -17.700001 0.1
11.9 -17.700001 0.1
12.1 -18.299999 0.1
12.1 -18.1 0.1
12.3 -18.1 0.1
12.5 -18.299999 0.1
12.7 -18.299999 0.1
12.1 -17.9 0.1
12.1 -17.700001 0.1
12.3 -17.700001 0.1
12.5 -17.9 0.1
12.5 -17.700001 0.1
12.7 -17.700001 0.1
10.1 -17.5 0.1
10.1 -17.299999 0.1
10.1 -17.1 0.1
10.3 -17.1 0.1
10.1 -16.9 0.1
10.3 -16.9 0.1
10.7 -17.5 0.1
10.5 -17.299999 0.1
10.7 -17.299999 0.1
10.9 -17.5 0.1
11.1 -17.5 0.1
10.9 -17.299999 0.1
11.1 -17.299999 0.1
10.5 -17.1 0.1
10.7 -17.1 0.1
10.5 -16.9 0.1
10.7 -16.9 0.1
10.9 -17.1 0.1
11.1 -16.9 0.1
10.1 -16.700001 0.1
10.3 -16.700001 0.1
10.1 -16.5 0.1
10.3 -16.5 0.1
10.1 -16.299999 0.1
10.3 -16.299999 0.1
10.1 -16.1 0.1
10.3 -16.1 0.1
10.5 -16.700001 0.1
10.7 -16.700001 0.1
10.7 -16.5 0.1
10.9 -16.700001 0.1
11.1 -16.5 0.1
10.5 -16.299999 0.1
10.5 -16.1 0.1
10.7 -16.1 0.1
11.1 -16.299999 0.1
11.1 -16.1 0.1
11.3 -17.5 0.1
11.5 -17.5 0.1
11.5 -17.299999 0.1
11.7 -17.5 0.1
11.7 -17.299999 0.1
11.3 -17.1 0.1
11.5 -17.1 0.1
11.3 -16.9 0.1
11.5 -16.9 0.1
11.7 -17.1 0.1
11.9 -17.1 0.1
11.9 -16.9 0.1
12.1 -17.5 0.1
12.1 -17.299999 0.1
12.3 -17.299999 0.1
12.5 -17.5 0.1
12.5 -17.299999 0.1
12.3 -17.1 0.1
12.1 -16.9 0.1
12.3 -16.9 0.1
12.5 -17.1 0.1
12.7 -16.9 0.1
11.3 -16.700001 0.1
11.5 -16.700001 0.1
11.3 -16.5 0.1
11.5 -16.5 0.1
11.9 -16.700001 0.1
11.9 -16.5 0.1
11.5 -16.299999 0.1
11.5 -16.1 0.1
11.9 -16.299999 0.1
11.9 -16.1 0.1
12.1 -16.700001 0.1
12.3 -16.700001 0.1
12.1 -16.5 0.1
12.3 -16.5 0.1
12.7 -16.5 0.1
12.1 -16.299999 0.1
12.3 -16.299999 0.1
12.1 -16.1 0.1
12.3 -16.1 0.1
12.5 -16.299999 0.1
12.5 -16.1 0.1
10.1 -15.9 0.1
10.3 -15.9 0.1
10.1 -15.7 0.1
10.3 -15.7 0.1
10.1 -15.5 0.1
10.3 -15.5 0.1
10.1 -15.3 0.1
10.3 -15.3 0.1
10.5 -15.9 0.1
10.7 -15.9 0.1
10.5 -15.7 0.1
10.7 -15.7 0.1
11.1 -15.9 0.1
10.5 -15.5 0.1
10.7 -15.5 0.1
10.5 -15.3 0.1
10.7 -15.3 0.1
10.9 -15.5 0.1
10.9 -15.3 0.1
10.1 -15.1 0.1
10.3 -15.1 0.1
10.5 -15.1 0.1
10.7 -15.1 0.1
10.9 -15.1 0.1
11.3 -15.9 0.1
11.5 -15.9 0.1
11.3 -15.7 0.1
11.5 -15.7 0.1
11.7 -15.9 0.1
11.7 -15.7 0.1
11.3 -15.5 0.1
11.5 -15.5 0.1
11.3 -15.3 0.1
11.5 -15.3 0.1
11.7 -15.5 0.1
11.7 -15.3 0.1
11.9 -15.3 0.1
12.1 -15.9 0.1
12.3 -15.9 0.1
12.5 -15.9 0.1
12.7 -15.9 0.1
12.7 -15.7 0.1
12.3 -15.5 0.1
12.1 -15.3 0.1
12.3 -15.3 0.1
11.5 -15.1 0.1
11.7 -15.1 0.1
11.9 -15.1 0.1
12.1 -15.1 0.1
12.3 -15.1 0.1
12.5 -15.1 0.1
12.7 -15.1 0.1
13.1 -25.5 0.1
13.5 -25.299999 0.1
13.9 -23.700001 0.1
13.1 -22.9 0.1
13.5 -22.9 0.1
12.9 -22.700001 0.1
13.5 -22.700001 0.1
13.9 -23.1 0.1
13.9 -22.9 0.1
14.1 -22.9 0.1
14.5 -23.5 0.1
15.9 -23.700001 0.1
15.9 -23.5 0.1
15.7 -23.299999 0.1
14.7 -22.9 0.1
14.5 -22.5 0.1
15.1 -22.5 0.1
15.5 -23.1 0.1
15.5 -22.9 0.1
15.7 -22.9 0.1
15.9 -22.9 0.1
15.3 -22.700001 0.1
15.3 -22.5 0.1
15.7 -22.700001 0.1
15.1 -22.700001 1.5
15.1 -22.5 1.5
15.3 -24.5 2.3
15.3 -24.1 2.0999999
15.3 -24.299999 2.3
15.3 -24.1 2.3
15.3 -25.5 2.7
15.3 -25.299999 2.7
15.3 -25.1 2.5
15.3 -24.9 2.5
15.3 -25.1 2.7
15.3 -24.9 2.7
15.5 -24.9 2.7
15.3 -25.5 2.9000001
15.5 -25.5 2.9000001
15.3 -25.299999 2.9000001
15.3 -25.5 3.0999999
15.3 -25.1 2.9000001
15.5 -25.1 2.9000001
15.3 -24.700001 2.5
15.3 -24.5 2.5
15.3 -24.700001 2.7
15.3 -24.299999 2.5
15.3 -24.1 2.5
15.1 -23.299999 1.9
15.3 -23.5 1.9
15.3 -23.299999 1.9
15.3 -23.9 2.0999999
15.3 -23.700001 2.0999999
15.3 -23.9 2.3
15.5 -23.9 2.3
15.3 -23.700001 2.3
15.3 -23.5 2.0999999
15.5 -23.5 2.0999999
15.3 -23.299999 2.0999999
15.1 -23.1 1.7
15.1 -23.1 1.9
15.1 -22.700001 1.7
15.3 -23.1 1.7
15.3 -22.9 1.7
15.3 -23.1 1.9
15.5 -23.1 1.9
15.3 -22.9 1.9
15.3 -22.700001 1.7
15.3 -22.5 1.7
15.3 -23.1 2.0999999
16.700001 -25.299999 0.1
17.5 -25.299999 0.1
17.299999 -24.9 0.1
17.1 -24.700001 0.1
17.5 -24.700001 0.1
17.1 -24.1 0.1
17.9 -24.1 0.1
18.299999 -24.1 0.1
16.700001 -23.9 0.1
16.700001 -23.5 0.1
16.700001 -23.299999 0.1
16.9 -23.700001 0.1
16.1 -23.1 0.1
16.1 -22.9 0.1
16.5 -23.1 0.1
16.299999 -22.5 0.1
16.5 -22.700001 0.1
16.5 -22.5 0.1
18.1 -23.9 0.1
19.1 -23.299999 0.1
18.299999 -22.5 0.1
18.700001 -22.5 0.1
13.7 -22.1 0.1
14.3 -22.1 0.1
13.7 -21.9 0.1
13.9 -21.9 0.1
13.9 -21.700001 0.1
14.3 -21.700001 0.1
13.7 -21.299999 0.1
14.3 -21.5 0.1
14.3 -21.299999 0.1
13.9 -20.9 0.1
14.1 -21.1 0.1
14.3 -21.1 0.1
14.1 -20.9 0.1
14.7 -22.299999 0.1
14.5 -22.1 0.1
15.1 -21.9 0.1
14.9 -21.700001 0.1
15.1 -21.700001 0.1
15.5 -22.1 0.1
15.7 -22.1 0.1
15.9 -22.1 0.1
15.3 -21.9 0.1
15.5 -21.700001 0.1
15.7 -21.9 0.1
15.9 -21.9 0.1
15.7 -21.700001 0.1
14.5 -21.299999 0.1
14.7 -21.299999 0.1
14.9 -21.5 0.1
15.1 -21.5 0.1
14.5 -21.1 0.1
15.1 -20.9 0.69999999
15.3 -21.5 0.1
15.9 -21.1 0.1
15.1 -21.9 1.1
15.1 -21.700001 1.1
15.1 -22.299999 1.3
15.1 -22.1 1.3
15.1 -22.299999 1.5
15.1 -22.1 1.5
15.1 -21.9 1.3
15.1 -21.700001 1.3
15.3 -22.299999 1.5
15.3 -22.1 1.5
15.3 -21.9 1.3
15.3 -21.700001 1.3
15.3 -21.9 1.5
15.3 -21.700001 1.5
15.1 -21.299999 0.89999998
15.1 -21.5 1.1
15.1 -21.299999 1.1
15.1 -21.1 0.89999998
15.1 -20.9 0.89999998
15.1 -21.1 1.1
15.1 -20.9 1.1
15.1 -21.5 1.3
15.3 -21.299999 1.1
15.3 -20.9 0.89999998
15.3 -21.1 1.1
15.3 -20.9 1.1
15.3 -21.5 1.3
13.1 -20.700001 0.1
12.9 -20.5 0.1
13.5 -20.5 0.1
12.9 -20.299999 0.1
13.3 -20.299999 0.1
13.5 -20.299999 0.1
13.3 -20.1 0.1
13.9 -20.700001 0.1
13.7 -20.5 0.1
13.9 -20.299999 0.1
14.1 -20.299999 0.1
12.9 -19.9 0.1
13.1 -19.9 0.1
12.9 -19.700001 0.1
13.5 -19.700001 0.1
13.1 -19.5 0.1
13.1 -19.299999 0.1
13.5 -19.299999 0.1
13.9 -19.700001 0.1
14.3 -19.700001 0.1
13.7 -19.5 0.1
13.9 -19.5 0.1
14.1 -19.5 0.1
14.3 -19.5 0.1
14.5 -20.5 0.1
15.1 -20.299999 0.1
14.9 -20.1 0.1
15.1 -20.700001 0.69999999
15.1 -20.5 0.69999999
15.1 -20.299999 0.5
15.1 -20.1 0.5
15.1 -20.299999 0.69999999
15.1 -20.1 0.69999999
15.9 -20.299999 0.1
15.9 -20.1 0.1
14.5 -19.9 0.1
14.7 -19.9 0.1
14.5 -19.700001 0.1
14.7 -19.700001 0.1
14.9 -19.9 0.1
14.9 -19.700001 0.1
15.1 -19.700001 0.1
14.9 -19.9 0.30000001
15.1 -19.9 0.30000001
14.9 -19.700001 0.30000001
15.1 -19.700001 0.30000001
14.9 -19.9 0.5
15.1 -19.9 0.5
15.1 -19.700001 0.5
14.9 -19.9 0.69999999
15.1 -19.9 0.69999999
15.1 -19.700001 0.69999999
15.3 -19.700001 0.1
15.3 -19.700001 0.30000001
15.7 -19.9 0.1
15.9 -19.9 0.1
15.7 -19.700001 0.1
15.9 -19.700001 0.1
15.3 -19.5 0.1
15.9 -19.5 0.1
15.3 -19.700001 0.5
15.3 -19.700001 0.69999999
15.5 -19.700001 0.69999999
15.1 -20.700001 0.89999998
15.1 -20.5 0.89999998
15.1 -20.1 0.89999998
15.1 -20.1 1.1
15.1 -20.1 1.3
15.1 -20.1 1.5
15.3 -20.700001 0.89999998
15.3 -20.5 0.89999998
14.9 -19.9 0.89999998
15.1 -19.9 0.89999998
15.1 -19.700001 0.89999998
14.9 -19.9 1.1
15.1 -19.9 1.1
15.1 -19.700001 1.1
15.1 -19.9 1.3
15.1 -19.700001 1.3
15.1 -19.9 1.5
15.1 -19.700001 1.5
15.3 -19.700001 0.89999998
15.5 -19.700001 0.89999998
15.3 -19.700001 1.1
15.5 -19.700001 1.1
15.3 -19.700001 1.3
15.5 -19.700001 1.3
15.3 -19.700001 1.5
15.5 -19.700001 1.5
15.3 -22.299999 1.7
15.1 -20.1 1.7
15.1 -20.1 1.9
15.1 -20.1 2.0999999
15.1 -20.1 2.3
15.1 -19.9 1.7
15.1 -19.700001 1.7
15.1 -19.9 1.9
15.1 -19.9 2.0999999
15.1 -19.9 2.3
15.3 -19.700001 1.7
15.5 -19.700001 1.7
15.3 -19.9 1.9
15.5 -19.9 1.9
15.3 -19.700001 1.9
15.5 -19.700001 1.9
15.3 -19.9 2.0999999
15.5 -19.9 2.0999999
15.3 -19.700001 2.0999999
15.3 -19.9 2.3
15.5 -19.9 2.3
15.3 -19.700001 2.3
15.1 -20.1 2.5
15.1 -20.1 2.7
15.1 -20.1 2.9000001
15.1 -20.1 3.0999999
15.3 -20.1 2.7
15.3 -20.1 2.9000001
15.3 -20.299999 3.0999999
15.3 -20.1 3.0999999
15.1 -19.9 2.5
15.1 -19.9 2.7
15.1 -19.9 2.9000001
15.3 -19.9 2.5
15.5 -19.9 2.5
15.3 -19.700001 2.5
15.3 -19.9 2.7
15.5 -19.9 2.7
15.3 -19.9 2.9000001
15.5 -19.9 2.9000001
15.3 -19.9 3.0999999
15.5 -19.9 3.0999999
15.7 -19.9 3.0999999
16.1 -22.299999 0.1
16.299999 -22.299999 0.1
16.1 -22.1 0.1
16.299999 -22.1 0.1
16.1 -21.9 0.1
17.700001 -22.1 0.1
17.9 -22.1 0.1
18.1 -22.299999 0.1
18.1 -22.1 0.1
18.299999 -22.1 0.1
17.700001 -21.9 0.1
17.9 -21.9 0.1
17.700001 -21.700001 0.1
17.9 -21.700001 0.1
18.1 -21.9 0.1
18.299999 -21.9 0.1
18.1 -21.700001 0.1
18.5 -22.299999 0.1
18.700001 -22.299999 0.1
18.5 -22.1 0.1
18.700001 -22.1 0.1
18.5 -21.9 0.1
18.700001 -21.700001 0.1
19.1 -21.700001 0.1
17.9 -21.5 0.1
18.1 -21.5 0.1
18.299999 -21.5 0.1
18.1 -21.299999 0.1
18.299999 -21.299999 0.1
18.299999 -21.1 0.1
18.299999 -20.9 0.1
18.5 -21.5 0.1
18.700001 -21.5 0.1
18.5 -21.299999 0.1
18.700001 -21.299999 0.1
18.9 -21.5 0.1
18.9 -21.299999 0.1
19.1 -21.299999 0.1
18.5 -21.1 0.1
18.700001 -21.1 0.1
18.5 -20.9 0.1
18.700001 -20.9 0.1
18.9 -20.9 0.1
16.1 -20.299999 0.1
16.1 -20.1 0.1
16.299999 -20.1 0.1
16.700001 -20.299999 0.1
16.5 -20.1 0.1
16.700001 -20.1 0.1
16.1 -19.9 0.1
16.1 -19.700001 0.1
16.299999 -19.700001 0.1
16.5 -19.9 0.1
16.5 -19.700001 0.1
16.700001 -19.700001 0.1
16.1 -19.5 0.1
16.299999 -19.5 0.1
16.1 -19.299999 0.1
16.299999 -19.299999 0.1
16.5 -19.5 0.1
16.5 -19.299999 0.1
16.700001 -19.299999 0.1
18.299999 -20.700001 0.1
18.1 -20.5 0.1
18.299999 -20.5 0.1
18.299999 -20.299999 0.1
18.299999 -20.1 0.1
18.5 -20.700001 0.1
18.700001 -20.700001 0.1
18.5 -20.5 0.1
18.9 -20.700001 0.1
18.5 -20.299999 0.1
18.700001 -20.299999 0.1
18.1 -19.9 0.1
18.1 -19.700001 0.1
18.299999 -19.700001 0.1
17.9 -19.5 0.1
17.9 -19.299999 0.1
18.1 -19.5 0.1
18.299999 -19.5 0.1
18.1 -19.299999 0.1
18.299999 -19.299999 0.1
18.5 -19.700001 0.1
19.1 -19.9 0.1
18.700001 -19.299999 0.1
18.9 -19.5 0.1
18.9 -19.299999 0.1
17.700001 -20.1 3.0999999
17.9 -20.1 3.0999999
18.1 -20.1 2.9000001
18.299999 -20.1 2.9000001
18.1 -20.1 3.0999999
18.299999 -20.1 3.0999999
18.5 -20.1 2.7
18.700001 -20.1 2.7
19.1 -20.1 2.5
18.9 -20.1 2.7
19.1 -20.1 2.7
18.5 -20.1 2.9000001
18.700001 -20.1 2.9000001
18.5 -20.1 3.0999999
18.9 -20.1 2.9000001
19.1 -20.1 2.9000001
18.299999 -19.9 2.9000001
18.1 -19.9 3.0999999
18.299999 -19.9 3.0999999
18.700001 -19.9 2.7
19.1 -19.9 2.5
18.9 -19.9 2.7
19.1 -19.9 2.7
18.5 -19.9 2.9000001
18.700001 -19.9 2.9000001
18.5 -19.9 3.0999999
18.9 -19.9 2.9000001
19.1 -19.9 2.9000001
15.5 -25.5 4.0999999
15.5 -25.299999 4.0999999
15.3 -25.5 4.3000002
15.5 -25.5 4.3000002
15.3 -25.299999 4.3000002
15.5 -25.299999 4.3000002
15.5 -25.1 4.0999999
15.5 -24.9 4.0999999
15.3 -25.1 4.3000002
15.5 -25.1 4.3000002
15.3 -24.9 4.3000002
15.5 -24.9 4.3000002
15.3 -25.5 4.5
15.5 -25.5 4.5
15.3 -25.299999 4.5
15.5 -25.5 4.6999998
15.5 -25.299999 4.6999998
15.3 -25.1 4.5
15.3 -24.9 4.5
15.5 -25.1 4.6999998
15.5 -24.9 4.6999998
15.5 -24.700001 4.0999999
15.5 -24.5 4.0999999
15.3 -24.700001 4.3000002
15.5 -24.700001 4.3000002
15.3 -24.5 4.3000002
15.5 -24.5 4.3000002
15.5 -24.299999 4.0999999
15.5 -24.1 4.0999999
15.3 -24.299999 4.3000002
15.5 -24.299999 4.3000002
15.3 -24.1 4.3000002
15.5 -24.1 4.3000002
15.3 -24.700001 4.5
15.3 -24.5 4.5
15.5 -24.700001 4.6999998
15.5 -24.5 4.6999998
15.3 -24.299999 4.5
15.3 -24.1 4.5
15.5 -24.299999 4.6999998
15.3 -24.1 4.6999998
15.5 -24.1 4.6999998
15.5 -23.9 4.0999999
15.5 -23.700001 4.0999999
15.3 -23.9 4.3000002
15.5 -23.9 4.3000002
15.3 -23.700001 4.3000002
15.5 -23.700001 4.3000002
15.5 -23.5 4.0999999
15.5 -23.299999 4.0999999
15.3 -23.5 4.3000002
15.5 -23.5 4.3000002
15.3 -23.299999 4.3000002
15.5 -23.299999 4.3000002
15.3 -23.9 4.5
15.3 -23.700001 4.5
15.3 -23.9 4.6999998
15.5 -23.9 4.6999998
15.5 -23.700001 4.6999998
15.3 -23.5 4.5
15.3 -23.299999 4.5
15.5 -23.5 4.6999998
15.3 -23.299999 4.6999998
15.5 -23.299999 4.6999998
15.5 -23.1 4.0999999
15.5 -22.9 4.0999999
15.5 -23.1 4.3000002
15.3 -22.9 4.3000002
15.5 -22.9 4.3000002
15.5 -22.700001 4.0999999
15.5 -22.5 4.0999999
15.3 -22.700001 4.3000002
15.5 -22.700001 4.3000002
15.3 -22.5 4.3000002
15.5 -22.5 4.3000002
15.3 -23.1 4.5
15.3 -22.9 4.5
15.5 -23.1 4.6999998
15.5 -22.9 4.6999998
15.3 -22.700001 4.5
15.3 -22.5 4.5
15.5 -22.700001 4.6999998
15.3 -22.5 4.6999998
15.5 -22.5 4.6999998
15.7 -24.5 6.3000002
15.5 -24.1 6.3000002
15.7 -24.299999 6.3000002
15.7 -24.1 6.3000002
15.5 -22.700001 5.5
15.5 -22.5 5.5
15.7 -22.700001 5.5
15.7 -22.5 5.5
15.7 -23.299999 5.9000001
15.5 -23.9 6.3000002
15.5 -23.700001 6.3000002
15.5 -23.5 6.0999999
15.5 -23.299999 6.0999999
15.5 -23.5 6.3000002
15.5 -23.299999 6.3000002
15.7 -23.5 6.3000002
15.7 -23.299999 6.3000002
15.5 -22.9 5.6999998
15.5 -23.1 5.9000001
15.5 -22.9 5.9000001
15.7 -23.1 5.6999998
15.7 -23.1 5.9000001
15.5 -22.700001 5.6999998
15.5 -22.5 5.6999998
15.5 -22.700001 5.9000001
15.5 -22.5 5.9000001
